# .PCD v0.7 - Point Cloud Data file format
VERSION 0.7
FIELDS x y z intensity
SIZE 4 4 4 4
TYPE F F F F
COUNT 1 1 1 1
WIDTH 1212
HEIGHT 1
VIEWPOINT 0 0 0 1 0 0 0
POINTS 1212
DATA ascii
8.6217413 16.924566 -83.365196 13.932555
18.288086 16.839031 -83.363571 14.0675
18.78089 16.89535 -83.366875 14.061
19.316391 17.016922 -83.347855 14.05875
19.885345 16.983562 -83.454712 14.065
20.270895 17.051086 -83.577103 14.05625
20.68923 16.977047 -83.413834 13.851649
20.87845 17.077009 -83.298698 14.058833
8.5347118 17.217781 -83.232475 13.1445
-34.866116 9.5351343 -83.020844 5.7272725
-34.661766 9.5685377 -83.173515 6.5605001
-34.123913 9.5233135 -83.018242 4.458333
-33.779163 9.5101557 -82.960754 4.6388888
-33.437759 9.5046768 -83.032845 3.6666667
-32.998745 9.5022945 -83.000824 3.3333333
-32.594574 9.4996166 -82.980591 5
-32.297684 9.5018492 -83.059563 4.25
-31.777227 9.4809561 -83.021614 2.0575755
-31.344328 9.4732685 -83.049385 2.6177778
-30.999775 9.4665861 -82.995461 2.488095
-30.627869 9.4587545 -82.959389 3.6140354
-30.210989 9.4527121 -82.975731 4.2666669
-29.82077 9.4504681 -82.998192 4.2666669
-29.436651 9.4488039 -82.960152 4.375
-29.022522 9.4554462 -83.011162 5.0769229
-28.608469 9.460391 -83.009964 5.0769229
-28.303003 9.4981508 -82.984367 6.4027781
-34.852032 9.6844854 -83.024071 6.1633043
-34.586708 9.7963152 -83.075951 6.399663
-33.420303 9.8783636 -82.926689 7.4666667
-32.93988 9.9100208 -83.186508 7.75
-28.447968 9.7094841 -83.06852 8
-28.291647 9.7941065 -82.996529 7.4426284
-34.515392 10.175982 -82.986183 9.7064676
-33.395908 10.200263 -82.922295 13.365192
-32.909569 10.24859 -83.153664 13.502375
-28.293385 10.208982 -83.000458 9.0621386
-34.905991 10.720994 -83.004486 11.904954
-34.53669 10.478395 -83.00444 10.971093
-28.286211 10.611806 -83.000694 10.488662
-27.844067 10.654295 -83.143364 7
-27.318493 10.659566 -83.073326 7
-26.952444 10.669168 -82.880531 5
-26.609852 10.680274 -83.046616 5.1428571
-26.271379 10.673945 -82.986725 5.25
-25.751486 10.673018 -82.904694 4.5999999
-25.414597 10.659422 -83.005348 4.3333335
-25.047203 10.657454 -82.953743 3.875
-24.591352 10.647799 -83.019089 3.25
-24.286488 10.645277 -82.926346 1.1666667
-23.707865 10.657829 -83.034775 4
-23.328468 10.637385 -83.102135 2.625
-22.953365 10.634109 -83.181229 2.25
-22.617773 10.660186 -83.158478 4
-22.090704 10.636629 -82.990448 1.175
-21.743164 10.637721 -82.95256 1.6600001
-21.426941 10.642068 -82.977089 2.9604168
-21.028131 10.641667 -82.9963 3.988095
-20.65535 10.645506 -83.005226 4.4313726
-20.154215 10.651896 -83.016548 5
-19.842634 10.646424 -83.068504 4.3333335
-19.503714 10.645409 -83.019035 5
-18.94301 10.650856 -82.955528 5.1428571
-18.621521 10.650658 -83.048317 5.4000001
-18.126583 10.665307 -82.984688 5
-17.864635 10.669474 -83.166611 6
-17.220686 10.677648 -82.865562 6.5
-16.908154 10.680033 -82.866531 6.5
-16.538675 10.669671 -82.959129 6.3333335
-16.260826 10.665971 -83.04612 6.25
-15.701063 10.657587 -83.191338 7
-15.274094 10.664221 -83.01506 6
-14.782473 10.646942 -83 6
-14.207243 10.642166 -83.001678 6
-13.55002 10.674074 -82.979019 7
-13.100595 10.652629 -82.873772 6
-12.448143 10.658326 -82.978867 6
-12.15761 10.647491 -83.022247 6
-11.77491 10.65686 -82.901703 7
-11.398878 10.714165 -83.038971 7
-11.008196 10.718394 -83.062195 6.5500002
-10.638574 10.693964 -83.025795 6.0999999
-10.143044 10.666845 -82.90876 6.1333332
-9.803854 10.645599 -83.028091 5.8000002
-9.3511248 10.64877 -82.927414 6.3333335
-8.921319 10.642429 -82.963448 5.3333335
-8.5973101 10.645534 -82.967422 5.25
-8.2359524 10.648757 -82.946846 5
-7.8880882 10.645844 -83.021027 4.1875
-7.4254217 10.637933 -83.038528 2.1571429
-7.0498638 10.640783 -83.067024 3.5833333
-6.6379242 10.651814 -83.059097 5.6666665
-6.2516508 10.655924 -82.982964 5.4571428
-5.8065758 10.665469 -82.985794 6.4000001
-5.4032373 10.658722 -83.002434 5.1199999
-5.0545893 10.66228 -82.963562 5.3333335
-4.5888867 10.653628 -82.923843 2.875
-4.1853533 10.654534 -82.919289 3.2777779
-3.8136961 10.661489 -82.98745 4.7777777
-3.3889568 10.667678 -82.950798 6.1428571
-3.0569642 10.657602 -82.991241 4.7272725
-2.6761961 10.671382 -82.947388 6
-2.051795 10.665253 -82.966698 5
-1.7875247 10.678579 -83.091621 6
-0.82548094 10.646364 -82.801407 6
-0.5685522 10.686774 -82.916588 6
-0.1574254 10.698799 -82.860451 6
0.2389534 10.706608 -82.966148 6.1999998
0.44057322 10.689203 -82.996811 6
0.91921186 10.667163 -83.078041 6
3.855547 10.644859 -82.810524 6
4.7237315 10.694005 -83.092644 6
5.8245487 10.648173 -83.048912 5.1999998
6.1586089 10.635821 -83.075043 5
6.7183266 10.704535 -82.875793 5.1999998
7.0395455 10.793832 -82.860275 6
7.4241385 10.678001 -82.964722 4.8000002
7.9192886 10.680267 -83.050041 4.5
8.2353134 10.676881 -83.008438 3.7916665
8.6335087 10.685039 -82.961685 3.28125
8.9845734 10.671258 -83.044502 2.0416667
9.4292812 10.672374 -82.986053 3
9.8380623 10.680879 -82.906342 3
10.251913 10.689626 -82.941444 3.0999999
10.637096 10.692542 -82.905365 3.75
11.052243 10.691358 -82.971619 3.8333333
11.395705 10.690778 -83.017899 3.3928571
11.788286 10.68978 -82.982101 2.7285714
12.183795 10.690042 -83.058533 3.8333333
12.653249 10.69709 -82.951874 4.6666665
12.988387 10.687416 -82.988586 4.5
13.380219 10.69813 -83.040398 5.2857141
13.749017 10.704015 -83.072113 5.6666665
14.186504 10.698267 -82.879654 5
14.529819 10.696147 -83.030296 5
15.883452 10.744083 -82.871033 6.75
16.131899 10.762066 -82.919601 7
17.103741 10.704975 -82.949417 6
17.904387 10.693993 -82.994797 6
18.104912 10.700788 -82.96505 6.25
18.532734 10.7101 -83.122017 6
19.267422 10.713098 -83.089119 6
19.870943 10.716122 -83.026581 6
-34.903416 10.967221 -82.983299 12.398215
-28.272959 10.987089 -82.984924 10.530488
-22.606007 11.059179 -82.876228 7.7916665
-12.730763 11.114084 -82.817612 8.1342506
-12.205275 11.123142 -82.906342 7.816
-11.746927 11.028555 -82.966881 7.4132004
-11.364764 10.977641 -83.042419 7.2755551
-11.002816 10.970478 -83.111198 7.0821738
-10.648446 10.964845 -83.125175 6.9744792
-10.189008 11.009188 -82.972153 7.5437727
-5.8644304 11.067749 -82.823547 7.75
-2.1983113 11.106653 -83.115707 8.321557
-1.801486 11.110703 -83.11499 7.9494047
-1.5505279 11.109335 -83.134933 8.1354008
-1.1519098 11.084663 -83.182335 8.3024998
-0.36111498 11.108323 -82.865585 8.0457497
0.71635628 11.105964 -83.059952 8.0515003
0.81041622 11.115372 -83.070244 8.0480003
4.7195182 11.076291 -83.095299 8.0485001
6.0442557 10.912131 -82.800148 7
7.0341916 11.064038 -82.907082 8.0572338
15.084327 11.046882 -83.045219 7.3339233
15.307431 11.100093 -82.855324 7
15.792 10.856822 -82.90493 7.2818127
16.116241 10.825233 -82.932816 6.75
16.489529 11.090813 -82.83609 7
21.012346 10.89868 -83.029144 7
-34.900101 11.383465 -82.993011 12.804957
-28.402634 11.379587 -83.025024 10
-28.26683 11.416932 -83.008736 10.856314
-22.625149 11.245546 -82.811394 11.817421
-12.208347 11.28346 -82.934135 8.552599
-11.73805 11.394198 -83.010605 8.8198633
-11.398409 11.401703 -83.047157 8.5798101
-11.031985 11.413304 -83.070564 8.554244
-10.614237 11.43294 -83.131615 8.9401159
-10.230551 11.310033 -82.991432 8.8339386
-6.0359387 11.532727 -82.83754 15
-5.8661289 11.331345 -82.82682 11.833834
-2.2513351 11.202653 -83.1194 8.1219997
-1.8625345 11.265997 -83.111633 8.7662497
-1.5109315 11.267399 -83.152817 9
5.8793416 11.581706 -82.823051 11.22515
6.2237515 11.433372 -82.848869 10.469887
6.6339436 11.414541 -82.886017 10.319128
6.9889002 11.31813 -82.90081 9.637167
15.088594 11.411108 -83.134239 9.3798018
15.372579 11.459435 -82.902153 9.3216791
15.885237 11.39054 -82.855942 8.1625004
16.295254 11.399207 -82.896294 8.372714
16.410233 11.285831 -82.84082 8.1639996
17.216658 11.224689 -82.93895 8.1424999
18.469849 11.323121 -83.190346 8.1479998
21.011345 11.306748 -83.050964 8
-34.905472 11.764283 -83.009323 13.379242
-28.275177 11.79657 -83.011147 12.089542
-12.543346 11.756742 -82.815002 10.645876
-12.200054 11.657475 -82.911423 10
-11.69943 11.80606 -83.014595 10.309751
-11.434709 11.723112 -83.006409 9.8267565
-10.950283 11.647632 -83.014664 8.66675
-10.716394 11.621428 -82.970734 11.122
-1.9720068 11.618476 -83.188835 12.05025
5.9155197 11.683357 -82.932076 12.05425
6.063272 11.777776 -82.800346 12.54425
15.116146 11.604328 -83.159767 10.113
15.471066 11.671618 -83.185814 9.1625004
15.986986 11.775546 -82.989677 11.1325
16.571585 11.947191 -82.956673 11.119
17.747238 11.880884 -83.179207 10.149
20.997801 11.686291 -83.038445 9
-34.995041 12.197264 -82.959518 13.274251
-28.257284 12.202479 -83.027481 12.253449
-13.744242 12.174347 -83.043526 11.1505
-0.12801933 12.220588 -82.802673 11
0.14657283 12.26396 -82.841606 12.024125
4.5783448 12.30092 -83.131226 12.07325
16.621851 12.013786 -83.163132 11.1165
20.99563 12.067288 -83.019104 10
-35.007645 12.576021 -83.006058 12.546101
-28.279348 12.592988 -83.048965 12.836857
-0.026688257 12.613795 -82.814377 13.024501
0.10946104 12.642788 -82.815964 12.520611
0.95572615 12.425292 -82.973969 12.028749
-35.003178 12.982934 -82.992363 13.290885
-28.225594 12.983679 -82.990662 11.791458
-0.016775131 12.854808 -82.819443 14
0.1898859 12.964761 -82.844315 12.420234
0.49687064 13.099033 -82.882576 12.02875
-34.998047 13.474516 -83.028969 12.640125
-28.245041 13.394797 -83.013435 13.235641
0.33353728 13.331182 -82.897621 13.2655
0.55639446 13.412893 -82.892876 13.604319
-34.931976 13.817532 -82.995758 13.250139
-28.215906 13.796917 -82.986877 12.829964
-1.3399768 13.626645 -82.995308 14.054874
0.68370748 13.73293 -82.922821 13.658331
0.87843132 13.881599 -82.935936 13.552014
4.3854418 13.79822 -83.192963 11.0235
21.038763 13.887101 -82.979713 12.488792
21.47925 13.798411 -82.963799 13.516833
21.750956 13.792194 -82.998573 12.882326
22.069138 13.780895 -83.128387 13
-34.924152 14.213278 -82.980583 14.072701
-28.194139 14.235147 -82.972633 13.389899
-21.530344 14.091606 -83.067337 13.53175
0.7682817 14.094971 -83.038467 14.092751
1.0298856 14.194654 -82.989616 13.340402
1.2929635 14.326004 -82.970642 13.55175
4.0926547 14.136199 -83.194626 14.0265
21.02112 14.147658 -82.971222 14.050743
-34.908009 14.596015 -82.978165 14.095633
-34.652348 14.775928 -82.921425 14.062333
-28.192118 14.594908 -83.006363 12.936501
-21.525024 14.712048 -83.048851 14.05575
-15.743096 14.585583 -82.990334 13.561181
1.1330637 14.524362 -83.014679 14.0815
1.3641196 14.674785 -82.981003 13.877017
1.6436195 14.715746 -83.111298 11.059
3.7958777 14.720612 -83.179657 14.356167
21.030111 14.546363 -82.972343 13.582294
-34.872791 14.871813 -83.0625 15
-34.60738 15.053546 -83.0457 14.934375
-28.253529 15.035252 -83.02562 14.286375
-27.668884 14.8323 -83.187233 15
-27.415525 15.006559 -82.944183 13.294559
-23.709831 14.93195 -83.022255 15.052
-23.088535 14.956411 -82.962311 15.052
-9.7563896 15.0995 -83.002708 13.90155
1.5072377 14.939123 -82.992241 13.348001
1.6697583 15.007793 -82.999306 13.689043
3.5006318 15.091452 -83.156464 13.389938
3.6833632 14.935701 -83.172256 13.01075
20.680616 15.045807 -82.990494 13.132096
20.943659 14.848753 -82.966209 12.516125
-34.473816 15.349963 -82.974655 14.4155
-34.182205 15.343924 -83.03566 14.615399
-33.84346 15.325299 -83.085625 14.692166
-33.395618 15.32844 -83.049805 14.6
-32.913944 15.371088 -83.06604 14.775312
-32.547562 15.355142 -83.049889 15.016
-32.245827 15.406247 -83.109238 15.029
-31.181816 15.398756 -82.813324 15.031
-27.615803 15.533273 -83.105728 12.5
-27.429344 15.30208 -83.009453 12.712556
-24.486221 15.258106 -82.947617 15.049
-24.204 15.294004 -82.973915 15.0495
-23.402008 15.368038 -83.160187 15.051
-21.03409 15.382368 -82.997841 13.996356
-9.7341156 15.419514 -83.01059 14.287156
-9.3509436 15.51049 -83.007133 14.065666
-9.117156 15.513492 -83.021637 14.038499
-8.6249561 15.574718 -82.930252 13.032749
-8.3683395 15.582399 -82.961304 13.031
-3.4612188 15.551338 -83.004669 14.403937
1.5154572 15.312763 -83.130005 14.0625
1.8371906 15.427415 -83.027397 14.344971
2.0646958 15.547545 -83.040253 15.097
3.1544561 15.456879 -83.083984 14.017
3.4069085 15.354918 -83.162651 13.237399
8.7374992 15.572199 -83.081543 15.032
20.684544 15.432765 -82.973679 12.957449
-117.33797 15.757134 -82.933281 8
-21.019033 15.699022 -83.017029 14.1565
-20.541639 15.831548 -83.057426 14.345695
-20.17923 15.883498 -83.025169 14.399714
-19.837549 15.911463 -83.066414 15.136499
-19.312691 15.980236 -82.975777 14.13775
-15.645856 15.844805 -83.025871 13.424063
-15.585586 15.827155 -82.881607 13
-8.9409714 15.628132 -82.989761 13.6815
-8.6677856 15.6648 -83.050217 14.086166
-8.2387714 15.67791 -82.960426 14.328188
-7.9181747 15.716832 -83.045563 15.093167
-7.372107 15.74785 -83.038651 14.963906
-6.8441386 15.841716 -83.005638 14.5795
-6.7828798 15.843081 -83.17485 15.037
-6.1980724 15.9021 -83.016731 15.085999
-5.7756906 15.931199 -82.97657 15.059083
-4.6404934 15.889163 -82.939812 15.1435
-3.6071143 15.76871 -83.125076 14.056
-3.4684589 15.789729 -83.023506 14.245998
-0.04916954 15.982876 -82.810303 15
1.9050589 15.64299 -83.164352 14.0435
2.1222496 15.793195 -83.043198 13.901814
2.991492 15.829147 -83.104561 14.219916
3.3287821 15.768198 -83.164391 15.109
8.7710075 15.763574 -83.037788 13.784954
8.8659763 15.84868 -82.948524 13.057875
21.960943 15.930065 -83.022743 12.345
-28.00066 16.126514 -83.118538 14.1685
-27.762199 16.186605 -82.998634 13.965502
-18.872337 16.044605 -83.132294 15.124
-18.627697 16.051662 -82.9021 14.1425
-18.024387 16.037569 -82.99942 12.021
-17.845501 16.114056 -83.054276 15.12925
-16.909769 16.179485 -82.991592 14.788417
-16.607655 16.216204 -82.937317 15.171
-15.651927 16.088734 -82.861542 14.435084
-15.461891 16.204628 -83.014702 15.020584
-14.848688 16.317827 -82.938766 14.516251
-14.619811 16.297165 -82.997932 13.684166
-14.04957 16.326839 -83.023689 15.054251
-13.596439 16.365547 -83.063599 15.059
-9.3852634 16.327711 -83.035812 14.58325
-5.3347349 16.00803 -82.811157 15.043751
-4.6697969 16.035273 -82.949707 14.062833
-4.1633654 16.101488 -82.996033 15.094249
-3.8439329 16.106699 -82.975929 15.052917
-3.5146923 16.024458 -82.887718 14.12
-2.978507 16.171917 -82.912216 15.08815
-2.6231849 16.183823 -82.862747 15.043125
-2.1736789 16.189156 -82.878815 15.056
-1.707186 16.309612 -83.101517 15.04175
-1.179708 16.291344 -83.123077 15.05075
0.23926476 16.105843 -82.847481 14.764857
0.60456556 16.199675 -82.892181 15.031612
1.0390388 16.253803 -82.971817 14.417889
1.4328188 16.263102 -83.001587 14.760178
1.7732147 16.265615 -83.075554 14.717751
2.2039342 16.186834 -83.087044 14.178089
2.5777659 16.252426 -83.052818 13.573375
2.9720027 16.10173 -83.138268 14.454333
3.282321 16.275278 -83.133995 15.049
3.6265256 16.320604 -83.166405 15.044
8.8893652 16.059082 -82.986694 13.351625
10.692424 16.085384 -83.072716 15.032
11.375136 16.287619 -82.971817 15.03425
12.542266 16.35647 -82.958931 14.706
12.807993 16.370523 -83.021362 15.039249
15.135668 16.27182 -82.958305 13.509347
15.218146 16.173567 -83.023224 15.097
21.964869 16.262396 -82.973808 12.494055
22.026932 16.235767 -83.013527 12.406167
-27.795143 16.647346 -82.933945 14.206388
-27.351866 16.731573 -82.989792 15.090834
-27.029236 16.731464 -82.969521 14.854285
-26.651957 16.699768 -82.990082 15.148875
-13.860945 16.435707 -83.142937 15.030251
-13.452442 16.432444 -83.128632 15.03675
-13.041355 16.484821 -83.077026 15.043751
0.29954529 16.401638 -82.839752 15.0265
0.72133261 16.473555 -82.938736 14.5585
1.0910032 16.523806 -82.953232 14.6757
1.3712164 16.482033 -83.003128 14.806469
1.8628917 16.454828 -83.08757 14.830917
2.1869917 16.51129 -83.087837 14.655772
2.6115985 16.62266 -82.956139 14.880101
4.5116549 16.762024 -83.125954 15.1105
8.632432 16.70793 -83.079803 14.370999
13.534255 16.480724 -82.927719 15.0505
13.736968 16.512371 -82.987885 15.055167
14.204892 16.531303 -83.025345 14.793625
14.70534 16.585508 -83.069221 15.0495
15.075551 16.486155 -82.952271 14.846749
15.478224 16.593351 -82.86895 14.033
15.863966 16.578459 -82.901779 15.067
16.58066 16.744398 -82.954453 14.0625
17.075905 16.751736 -83.058228 14.063749
17.26116 16.688299 -83.123062 14.0625
17.715378 16.762451 -83.155197 14.063999
20.753717 16.607347 -83.025703 12.005817
20.843811 16.697088 -82.854439 12.777125
21.945726 16.557499 -83.068413 12.353286
22.010662 16.551689 -82.927223 12.03525
-27.717777 16.803909 -83.018242 15.1365
-27.384523 16.805206 -82.897171 15.075251
-27.05971 16.82774 -83.000702 15.042
-25.917007 16.88695 -82.978989 14.1555
-10.396 16.823462 -82.813461 15.051
-9.975338 16.861362 -82.991829 15.0515
4.2341433 16.867981 -83.051781 15.023
4.6160822 16.901594 -83.168213 15.0235
5.2099819 16.927099 -82.904648 15.109
6.1052742 17.020775 -83.07605 15.109
7.7660084 17.112747 -83.049103 13.1395
8.6810217 16.974749 -83.014702 13.173944
19.953735 17.060675 -83.100662 14.0465
20.706482 17.042973 -82.99437 13.54025
20.844223 16.95981 -82.897186 13.301874
8.7272167 17.219057 -83.01506 13
-34.824219 9.5513792 -82.654663 5.8333335
-34.720848 9.5130997 -82.540565 5.9206347
-34.237194 9.4809122 -82.632133 5.30725
-33.741283 9.4545517 -82.626671 4.2199583
-33.379616 9.4567156 -82.549255 2.125
-32.987324 9.4700079 -82.552902 3.8
-32.629868 9.4617929 -82.590927 3.2
-32.192558 9.450572 -82.571922 1.9444444
-31.849539 9.4394703 -82.604729 2.2350001
-31.379065 9.4316578 -82.633461 2.3607843
-30.997723 9.4347658 -82.715347 3.1266668
-30.661186 9.4220362 -82.602249 2.9230769
-30.206137 9.4149857 -82.605515 3.1597221
-29.808685 9.4176302 -82.649719 4.181818
-29.450293 9.407752 -82.609856 4.3000002
-28.922722 9.4091272 -82.584404 4.818182
-28.62986 9.4115067 -82.620583 4.8888888
-28.232038 9.4960003 -82.599419 6.0811839
-34.845543 9.6407757 -82.634453 6.2497292
-34.524429 9.8278646 -82.588982 7.1165009
-33.710899 9.9630871 -82.471451 10
-33.479465 9.8140707 -82.601913 7
-28.228521 9.8071671 -82.602081 7.5815725
-34.45332 10.180125 -82.586342 9.5419817
-34.378994 10.11182 -82.556473 12.746002
-33.685959 10.078469 -82.429901 12.25
-33.36327 10.100711 -82.687172 11.667348
-28.226309 10.221951 -82.597084 9.3216314
-34.842113 10.733912 -82.594521 11.476171
-34.484093 10.491237 -82.618156 11.191927
-28.21776 10.610267 -82.600166 10.954479
-27.672207 10.673196 -82.799545 6
-27.470209 10.673988 -82.65274 6
-26.977877 10.686049 -82.456825 5.5
-26.623106 10.679268 -82.611961 5.6666665
-26.24563 10.686214 -82.626152 5.5
-25.735165 10.688076 -82.524239 5.375
-25.469538 10.676822 -82.598877 4.8571429
-24.966387 10.670316 -82.594658 4.090909
-24.638868 10.667095 -82.560005 4.0151515
-24.174862 10.65872 -82.58844 2.2983332
-23.819195 10.670923 -82.552063 3.7266669
-23.372105 10.65912 -82.534439 3.2
-22.938446 10.675005 -82.578911 4.6190481
-22.560919 10.655128 -82.642952 2.6666667
-22.180731 10.667402 -82.581879 5.4000001
-21.80571 10.653835 -82.610634 3.0625
-21.368391 10.648872 -82.574104 2.7625
-20.997416 10.650452 -82.637573 3.2727273
-20.536375 10.650905 -82.653328 3.5238097
-20.235567 10.663046 -82.602196 4.8888888
-19.836079 10.660301 -82.610603 4.5
-19.383865 10.668473 -82.589745 5.3333335
-19.105658 10.669155 -82.574593 5
-18.653944 10.666967 -82.589218 5
-18.092649 10.689075 -82.531502 6
-17.745647 10.692705 -82.592796 7
-17.469019 10.682324 -82.626083 6.5
-17.026855 10.679005 -82.624321 6.5
-16.702866 10.683002 -82.576645 6
-16.329021 10.680553 -82.700699 6
-15.934556 10.675728 -82.600609 6
-15.179861 10.676583 -82.466179 6
-14.418064 10.642139 -82.548187 6
-14.255857 10.653249 -82.565483 6
-13.714866 10.700785 -82.580154 6.5714288
-13.497755 10.685631 -82.588524 6.1999998
-13.027059 10.666574 -82.698204 6.3333335
-12.66836 10.670057 -82.558998 6.1999998
-12.271728 10.652491 -82.565094 6
-10.903835 10.661783 -82.449234 6.5
-10.662375 10.656882 -82.620628 6.3333335
-10.275197 10.680192 -82.567039 6
-9.8264074 10.657722 -82.629082 6.1666665
-9.4939499 10.659126 -82.606728 6.1999998
-9.0180426 10.658398 -82.579689 5.6666665
-8.5847273 10.655675 -82.617882 5.1428571
-8.1959972 10.654232 -82.617104 4.4444447
-7.8234997 10.661739 -82.571495 3.9722223
-7.3999615 10.658935 -82.581184 3.6923077
-6.9610324 10.659548 -82.565964 4.6071429
-6.7031054 10.651398 -82.640686 3.0555556
-6.2365756 10.669039 -82.496475 4.8800001
-5.9054546 10.662163 -82.604416 3.7
-5.4944501 10.670684 -82.542381 3.72
-4.9782305 10.653768 -82.46199 1.1416667
-4.5150213 10.657081 -82.512924 1
-4.1750841 10.660352 -82.637184 3
-3.7812214 10.666937 -82.567787 4
-3.4226537 10.675076 -82.52005 5.1999998
-3.0517795 10.669943 -82.61837 4.625
-2.651823 10.680156 -82.618622 6
-2.2608318 10.744182 -82.496407 6.0555553
-1.8495139 10.702581 -82.61895 5.5454545
-1.3488456 10.713788 -82.689049 5.5
-0.90266502 10.720068 -82.735313 6
-0.68649054 10.698061 -82.773819 6
0.63570642 10.706074 -82.427185 6.6666665
0.86485958 10.705465 -82.464706 6
1.2281847 10.693077 -82.524635 6
1.8260893 10.680797 -82.539909 6.6666665
4.0049491 10.654725 -82.528198 6
5.8759394 10.670777 -82.59996 5
6.2119002 10.669477 -82.597786 5
6.6240602 10.711661 -82.71357 5.25
7.0964341 10.772305 -82.583252 5.6666665
7.4271164 10.696385 -82.667107 4.6666665
7.8045874 10.684896 -82.664192 4.25
8.2386141 10.689351 -82.59066 4
8.5772448 10.691571 -82.569168 3.2369046
9.0660038 10.689399 -82.614601 3.0714285
9.447691 10.694547 -82.575058 3.2
9.8170223 10.71148 -82.529037 4.75
10.216648 10.714149 -82.459686 4.3333335
10.601204 10.705063 -82.502136 3.25
11.082096 10.698014 -82.572525 2.875
11.417744 10.70319 -82.59832 3.1875
11.762156 10.701132 -82.645905 2.6875
12.192116 10.705158 -82.63163 3.4000001
12.591409 10.707112 -82.595177 4.5
13.00085 10.700459 -82.663681 5
13.321048 10.700657 -82.644279 4.8333335
13.987864 10.704207 -82.796013 7
14.129802 10.711367 -82.596619 5
14.57545 10.709663 -82.627823 5.5714288
15.044516 10.708452 -82.632629 7
15.451385 10.709499 -82.5233 7
15.843706 10.749991 -82.647018 6.2857141
16.036715 10.728835 -82.467018 7
16.689625 10.722133 -82.501801 7
16.975014 10.719527 -82.582779 7
17.844931 10.711494 -82.584869 6
18.243738 10.72301 -82.598259 6
18.592649 10.717236 -82.490311 7
19.233574 10.724969 -82.759987 6
19.868256 10.730956 -82.443481 6
20.968868 10.750659 -82.56176 7
-34.843502 10.980188 -82.611237 11.726562
-34.79364 10.97407 -82.510857 13.05
-28.210838 10.992077 -82.587631 10.895806
-22.863287 11.045756 -82.731102 7.4166665
-14.11764 11.129756 -82.47361 8.1032
-13.895302 11.00294 -82.534019 7.6648688
-13.459877 11.032095 -82.64064 7.7872496
-12.98161 11.139231 -82.745361 8.1273575
-12.773307 11.10364 -82.785385 8.1234999
-10.088667 11.002411 -82.652023 7.44275
-9.9429903 11.096123 -82.56562 8.121973
-6.044415 11.064984 -82.622925 7.6047916
-2.3057594 10.98677 -82.503105 7.3350635
-1.7119838 11.092971 -82.578545 7.9376254
-1.4473706 11.122649 -82.635353 8.027667
-1.0440745 11.108448 -82.748283 8.0438337
2.941515 11.099775 -82.794838 8.0489998
7.1503816 10.925542 -82.556168 7.3444161
7.3118324 11.06626 -82.607735 7.7712989
10.176085 11.098937 -82.627541 7.7517009
10.419399 11.080461 -82.677925 7.3333335
15.433511 11.120369 -82.731506 7.8511877
15.774159 10.856554 -82.69503 6.5
16.175009 10.950182 -82.754044 6.7857141
21.062429 10.877124 -82.703011 7
-34.844574 11.403855 -82.626312 12.229318
-34.787254 11.480825 -82.504303 14.539249
-28.213823 11.416286 -82.604271 11.429488
-22.842245 11.283071 -82.722862 12.687154
-22.571598 11.326842 -82.788742 13.5
-14.148448 11.455244 -82.478279 9.0267143
-13.87817 11.43329 -82.583015 8.9650908
-13.406519 11.506595 -82.663742 9.1178761
-13.029368 11.459611 -82.721848 9.1200008
-12.687405 11.457799 -82.794319 9.1215
-11.066547 11.357569 -82.791046 8.03475
-10.537391 11.578059 -82.762764 8.1735001
-10.09823 11.366823 -82.649002 9.3056517
-9.9557343 11.316753 -82.530746 9.3470287
-6.1305141 11.421443 -82.666397 13.189312
-5.7808528 11.40097 -82.609329 14.167376
-1.6143833 11.498122 -82.522888 9.5069094
-1.4909766 11.406755 -82.506126 9.5063276
-0.8692283 11.423108 -82.614601 9.630208
-0.75218469 11.514626 -82.566566 9.1817923
4.2321587 11.422563 -82.500626 9.0472498
4.4103866 11.503605 -82.549561 10.056
4.9488311 11.533512 -82.630257 9.8862495
5.3185997 11.463023 -82.710167 10.222167
5.7342834 11.56571 -82.77037 11.059999
7.0548892 11.465444 -82.636612 10.817997
7.2775865 11.338427 -82.536606 9.6162338
10.208512 11.311671 -82.610352 12.699504
10.435619 11.334487 -82.633293 13.144485
15.428171 11.403273 -82.760643 9.0693216
15.8159 11.340195 -82.725479 8.2602501
16.018192 11.311977 -82.729202 8.1590996
19.258686 11.28241 -82.455772 8.1355
21.074001 11.312908 -82.671982 8.0348749
-34.840481 11.783783 -82.593018 13.138086
-34.788353 11.763292 -82.434631 15.0785
-28.20463 11.808255 -82.600792 12.157921
-14.138016 11.702493 -82.440331 9.6732187
-13.855363 11.789711 -82.52356 9.7622652
-13.428627 11.788101 -82.620384 9.7784166
-1.6790406 11.790295 -82.506966 10.70841
-1.5443473 11.789536 -82.514748 10.632514
-0.54987431 11.837984 -82.562546 10.614188
-0.26789176 11.897972 -82.515541 10.840187
4.6823444 11.6985 -82.540436 11.05725
5.4876122 11.61112 -82.701393 11.059
5.973104 11.941693 -82.595802 12.392333
6.1539869 11.824951 -82.659462 12.048564
6.6975899 11.653057 -82.604813 12.008325
6.8755822 11.637265 -82.558388 10.08075
15.517768 11.622128 -82.774063 9.6459999
16.819687 11.892708 -82.781219 10.1525
21.040718 11.746166 -82.710083 8.7842503
21.238564 11.693726 -82.668007 9.1394997
-34.883144 12.170663 -82.519821 11.011045
-28.180014 12.198069 -82.608437 12.275197
-13.373359 12.172751 -82.451302 10.915285
-13.029131 12.236598 -82.486694 10.539857
-12.585235 12.19609 -82.601509 10.560729
-12.16261 12.129115 -82.707558 10.135917
-11.926028 12.054278 -82.776772 11.151166
-2.0108314 12.345162 -82.488762 11.2
-1.7830238 12.176006 -82.485474 11.990142
-1.5636454 12.070009 -82.522018 12.459875
-0.47353253 12.104485 -82.5942 10.727091
-0.26175174 12.223001 -82.589447 11.509044
0.13386434 12.226 -82.710686 10.802889
0.64562559 12.283998 -82.528854 11.0245
4.9579573 12.082561 -82.445557 13.05825
5.5973577 12.076921 -82.53006 12.073
5.7120681 12.054586 -82.491158 13.0355
21.052755 12.073125 -82.689232 10
-34.92049 12.602815 -82.547379 11.892905
-28.188765 12.59465 -82.600739 13.233706
-2.081682 12.663887 -82.453545 11.987242
-1.8741789 12.565009 -82.48671 12.34595
-0.11744633 12.539527 -82.632614 12.336467
0.065225601 12.674339 -82.636642 13.062095
0.63594818 12.429519 -82.784271 11.021
-34.931313 13.019547 -82.580154 12.397308
-28.15206 13.01273 -82.589722 11.973987
-2.1814132 12.980531 -82.459099 12.043755
-1.9352237 12.870041 -82.487854 13.25
-0.032239437 12.831988 -82.698906 10.269
0.20417285 12.985505 -82.655014 12.774059
0.47877964 13.088013 -82.666939 13.689334
-34.908241 13.370474 -82.581779 13.215091
-28.162582 13.405993 -82.617905 13.056324
-2.4516749 13.447717 -82.442368 12.682715
-2.2897344 13.377299 -82.442581 12.891468
-0.41820526 13.462236 -82.63327 14.0565
0.34909517 13.260581 -82.722862 13.136407
0.544774 13.430278 -82.672577 13.67581
0.82251596 13.593891 -82.667389 14.04925
-34.862267 13.775662 -82.590775 13.225838
-28.158319 13.826552 -82.616272 12.863032
-3.2851257 13.87988 -82.796005 13.0625
-2.5495279 13.78446 -82.434647 13.085367
-2.3350723 13.687664 -82.427315 12.168083
-1.1350212 13.617636 -82.57486 14.056
0.69321793 13.75328 -82.707138 13.605184
0.92937702 13.926408 -82.746162 14.17875
21.094355 13.92134 -82.580864 12.824203
21.388083 13.808883 -82.645485 13.126334
21.763456 13.795942 -82.654305 13.285714
22.094763 13.813544 -82.63546 13.152083
-34.853199 14.196454 -82.58596 14.023473
-28.162127 14.202294 -82.624336 13.781676
-2.832449 14.191136 -82.431488 13
-2.6588778 14.186605 -82.422966 12.719654
0.77489996 14.000256 -82.749649 13.104
1.0126834 14.143124 -82.748207 13.484921
21.078995 14.156206 -82.602692 14.038651
-34.851585 14.590946 -82.60482 14.109482
-34.584919 14.792619 -82.531067 15
-28.129869 14.591146 -82.597961 13.142723
-21.746006 14.779621 -82.612755 14.054
-15.661428 14.611863 -82.626961 13.728562
-2.9005091 14.62895 -82.421654 13.630429
-2.722213 14.511296 -82.422554 12.333333
1.2685305 14.494994 -82.787666 15.051499
21.094011 14.571585 -82.569885 13.897586
-34.626499 14.893676 -82.646988 14.193001
-28.235128 14.892977 -82.614319 15
-27.889038 14.809974 -82.624481 12
-27.372646 15.025444 -82.578262 13.388875
-9.6753035 15.146181 -82.688522 13.476051
-9.5930233 15.147442 -82.592323 14.11775
-2.9894392 14.960433 -82.426399 13.365001
20.736496 15.04079 -82.632278 13.080848
20.951643 14.891014 -82.557457 11.901
-34.568283 15.276367 -82.665634 14.780874
-32.289986 15.412907 -82.67099 15.05175
-31.978714 15.44591 -82.481995 15.0555
-27.364643 15.363397 -82.609039 12.835393
-20.967916 15.432002 -82.606728 14.03698
-9.6852942 15.405026 -82.556252 14.302626
-9.5770226 15.422999 -82.727539 14.0365
-9.0768986 15.537443 -82.58828 13.899179
-3.4056602 15.55895 -82.618111 14.093
-3.1173186 15.429134 -82.42244 14.01575
8.7512093 15.51317 -82.713562 14.0275
8.9021721 15.592493 -82.736908 13.0525
20.746569 15.387436 -82.58387 13.629542
20.838287 15.354519 -82.57122 13.0875
-117.2645 15.768471 -82.551048 8
-27.494087 15.673877 -82.619461 12.1445
-20.928526 15.715242 -82.534225 14.3174
-20.518259 15.840106 -82.613068 13.279401
-20.188339 15.858843 -82.518463 12.0445
-19.826323 15.942487 -82.542648 14.17225
-19.407398 15.953208 -82.776047 13.584249
-19.078293 15.966597 -82.559402 13.10225
-17.890587 15.96373 -82.45462 15.1605
-15.607613 15.858967 -82.721779 15.0595
-15.533948 15.801641 -82.611908 13.284062
-9.5496197 15.609477 -82.435501 15.1515
-8.6057959 15.649077 -82.648003 14.38625
-8.1554947 15.703171 -82.639694 14.55175
-7.8518777 15.740393 -82.527451 14.645601
-7.4179339 15.793333 -82.630402 14.603834
-7.0145721 15.829593 -82.588333 15.0495
-6.7482514 15.879542 -82.515785 15.099833
-6.0301342 15.917934 -82.675385 15.058
-5.8074265 15.950363 -82.603027 15.084666
-5.4041104 15.960245 -82.59182 15.040392
-4.9022055 15.929159 -82.538208 15.067249
-4.5839214 15.93542 -82.63311 15.023334
-3.397696 15.817824 -82.605064 14.008467
-2.8194065 15.744018 -82.430763 15.1175
-2.2390902 15.775438 -82.516853 14.54425
-1.7818433 15.885045 -82.463852 14.566083
-1.3543798 15.939754 -82.527298 14.299055
-0.98186797 15.918233 -82.607933 14.478571
-0.63203299 15.927498 -82.60704 14.330144
-0.34925827 15.941097 -82.653313 14.399167
8.7351551 15.894151 -82.769089 14.056
8.887908 15.782962 -82.607887 13.898395
22.041729 15.863069 -82.514175 12.276751
-27.741259 16.187901 -82.619461 13.592966
-18.551159 16.040445 -82.543602 15.1595
-18.215906 16.058702 -82.758759 14.09325
-17.707462 16.10984 -82.479477 15.16175
-16.736807 16.186741 -82.51989 14.027
-16.331116 16.067225 -82.57338 15.0555
-15.820563 16.099571 -82.734566 15.05625
-15.54817 16.129496 -82.512108 14.641929
-14.256507 16.395201 -82.505806 15.0045
-9.4169159 16.313335 -82.767204 14.5875
-5.2325368 16.022408 -82.575981 14.744499
-4.9845886 16.03536 -82.583015 14.812249
-4.6147785 16.045456 -82.579735 15.062563
-4.1563792 16.074783 -82.632759 15.052322
-3.8631163 16.115362 -82.562195 15.05975
-3.4414067 16.097965 -82.654053 14.774928
-2.5748725 16.130781 -82.479317 14.825001
-1.8349192 16.08666 -82.439507 14.532906
-1.4139578 16.134352 -82.532585 14.79989
-0.97377837 16.182402 -82.585991 14.649849
-0.62241894 16.148829 -82.667442 14.690343
-0.21168089 16.185133 -82.728851 14.626918
0.15244007 16.131794 -82.765533 14.062
2.7013829 16.308187 -82.537056 13.0739
8.96348 16.100121 -82.547592 13.5765
11.298738 16.296318 -82.582947 15.0325
12.259027 16.345156 -82.669525 15.0355
12.635937 16.396833 -82.578476 15.05125
13.37333 16.367451 -82.511017 14.553249
14.110903 16.380814 -82.715164 15.04825
15.15959 16.208126 -82.711693 13.440399
15.23195 16.236357 -82.471245 14.038167
22.041235 16.249739 -82.595619 12.8215
-27.720787 16.645712 -82.540703 14.910044
-27.558895 16.707314 -82.605843 15.14325
-27.176252 16.786409 -82.720619 15
-12.615943 16.574621 -82.56562 15.036667
-11.803984 16.49234 -82.475136 15.0255
-9.360033 16.512844 -82.468239 14.547251
-0.4985427 16.426151 -82.52887 15.042749
-0.16750288 16.458693 -82.424454 15.02675
0.25329471 16.478168 -82.50354 15.027375
0.43901396 16.521404 -82.712128 15.0465
1.0111239 16.572983 -82.690887 15.0415
1.4735826 16.605556 -82.729233 15.0435
1.9405084 16.600449 -82.717957 15.0625
2.283556 16.698587 -82.691917 14.5765
2.7068551 16.526392 -82.59893 14.786667
8.7692175 16.736174 -82.626129 14.398833
8.8056183 16.782223 -82.429871 15.0825
12.592213 16.423897 -82.503998 15
12.819191 16.435989 -82.51255 15
13.431471 16.437321 -82.508598 14.5305
13.85165 16.485701 -82.575714 14.549657
14.224829 16.492334 -82.550171 14.903501
14.590442 16.517788 -82.664375 14.607927
15.080384 16.505209 -82.581963 14.04525
15.294746 16.532145 -82.484673 15.045167
20.858637 16.631611 -82.656525 12.534625
21.99622 16.54792 -82.755188 12.02225
22.047842 16.540865 -82.584755 12.972955
-27.65118 16.80879 -82.645157 15.137
-27.315399 16.812025 -82.552238 15.045334
-26.887281 16.828714 -82.537529 15.141833
-26.768633 16.833391 -82.504921 14.808499
-9.5664749 16.80957 -82.49202 15.0655
6.332593 16.915581 -82.482346 14.1065
6.6578236 17.026043 -82.479347 15.108
7.2858911 17.123178 -82.593307 14.60675
8.7351999 16.96253 -82.672562 14.180357
8.8676033 16.920555 -82.403908 12.0605
18.511347 16.985138 -82.403122 15.0695
19.064333 16.930983 -82.476982 14.064
19.333834 17.018675 -82.783737 14.048
19.794943 16.987791 -82.594429 13.716001
20.212128 17.089537 -82.64415 14.750167
20.680841 17.12945 -82.680199 14.465199
20.894886 16.936359 -82.57 13.486714
8.4854641 17.21734 -82.680573 13.139
8.8981295 17.241743 -82.588799 13.092667
-34.703285 9.4997168 -82.185379 5.8265133
-34.24979 9.4392595 -82.154602 2.55
-33.858841 9.4219217 -82.225517 2.8055556
-33.497879 9.399641 -82.115723 4.1875
-32.97345 9.4108896 -82.16526 6.401
-32.591854 9.4048977 -82.115379 3.5
-32.215565 9.4113817 -82.184769 4.6292
-31.775219 9.4157448 -82.218498 3.2575758
-31.44388 9.4003754 -82.175941 3.3611114
-31.003834 9.3956985 -82.248337 2.9730771
-30.614445 9.383625 -82.204201 2.1166668
-30.241631 9.3785706 -82.199661 2.8833334
-29.794462 9.3700018 -82.184654 3.4230769
-29.378891 9.3658352 -82.178291 3.8571429
-28.976492 9.3679724 -82.196182 4.0833335
-28.638359 9.3711596 -82.190407 4.75
-28.164806 9.4736118 -82.199112 6.5380373
-34.802505 9.6190014 -82.17186 8.0865002
-34.622375 9.7845936 -82.24041 7.3342056
-34.369858 9.9276457 -82.146561 8.5163956
-33.648129 9.8375998 -82.234673 8.0841131
-33.541306 9.8188171 -82.134949 7.9772329
-28.162395 9.805974 -82.211227 7.9609199
-34.420937 10.185942 -82.284653 9.4562178
-34.36898 10.214746 -82.119522 10.338973
-33.662807 10.225662 -82.37188 15.002125
-33.493015 10.163276 -82.213997 14.085083
-28.160318 10.228004 -82.18808 9.6318636
-34.807678 10.691454 -82.332428 10.0299
-34.590626 10.600861 -82.219963 11.004265
-34.378853 10.505363 -82.105431 11.268109
-28.160522 10.625197 -82.210045 10.767761
-27.781555 10.698797 -82.167114 6
-27.456942 10.682817 -82.14061 6.6666665
-26.937355 10.684647 -82.196312 5.6666665
-26.575506 10.701277 -82.280075 5.4000001
-26.193716 10.707892 -82.225136 5.3333335
-25.707424 10.688315 -82.263977 5
-25.34926 10.693469 -82.137558 4.5
-24.973492 10.682604 -82.213135 4.7142859
-24.589743 10.685144 -82.170616 4.1730771
-24.219973 10.68242 -82.192497 3.4772723
-23.818747 10.676916 -82.189377 2.8888888
-23.412912 10.676962 -82.144112 2.8809526
-23.050486 10.688706 -82.130074 4.4333334
-22.616016 10.679342 -82.204666 3.9200001
-22.238699 10.66875 -82.195152 2.0833335
-21.799316 10.662689 -82.2724 2.2916665
-21.367123 10.656834 -82.196671 1.3518519
-20.974346 10.659769 -82.213394 2.845238
-20.611542 10.666881 -82.147598 4.4285712
-20.227161 10.66893 -82.243668 4.25
-19.819508 10.678725 -82.180153 5
-19.361603 10.682137 -82.181862 5.25
-18.916786 10.687978 -82.182518 5.6666665
-18.557468 10.682756 -82.243698 5.4000001
-18.203428 10.672672 -82.198853 6.3333335
-17.90811 10.691819 -82.219559 6.3333335
-17.451109 10.697042 -82.22863 6
-16.977215 10.697123 -82.188797 6
-16.401777 10.696318 -82.231392 6
-16.226688 10.694131 -82.122421 6
-14.245288 10.681669 -82.17421 6.5
-13.872316 10.683209 -82.164146 6.5
-13.281288 10.686119 -82.106827 6
-12.888887 10.694781 -82.036545 6
-12.61896 10.680253 -82.180313 6
-12.171251 10.673056 -82.253624 6
-11.670187 10.665189 -82.200081 6
-11.040729 10.671512 -82.191368 6
-10.457319 10.673208 -82.153473 7
-10.245117 10.691358 -82.152565 5.5599999
-9.8582029 10.672064 -82.29084 6.5
-9.224865 10.663275 -82.100334 5
-8.9770193 10.663244 -82.26754 4.7142859
-8.7124519 10.667872 -82.200012 5
-8.151454 10.674039 -82.198975 3.8333333
-7.7655692 10.679562 -82.195343 4.2777777
-7.4048862 10.666568 -82.234451 2.9937501
-7.0284133 10.667238 -82.081924 1.3099999
-6.5901837 10.683522 -82.121819 5.5
-6.2558212 10.682364 -82.161812 5.1111112
-5.7457275 10.682467 -82.209122 5
-5.3262672 10.68835 -82.126869 5
-4.9736948 10.690516 -82.116928 5
-4.5972672 10.676718 -82.144493 2.5250001
-4.1760864 10.682932 -82.146355 4.3939395
-3.776268 10.680895 -82.137924 4.8000002
-3.4509768 10.677458 -82.170197 4.375
-3.0761697 10.682542 -82.176384 4.8333335
-2.6456447 10.684791 -82.203377 6.3333335
-2.3022132 10.749146 -82.209259 6.2777777
-1.7692627 10.773488 -82.047546 6.75
-1.2903029 10.782666 -82.0877 6.3333335
-0.97661877 10.730706 -82.172554 7
-0.6940878 10.751264 -82.203857 6.6666665
-0.17618816 10.719983 -82.279259 6.6666665
0.17623925 10.718383 -82.347351 6.5
0.99871862 10.691452 -82.151947 6.5
1.9292541 10.680885 -82.133926 6
2.2839425 10.688466 -82.233505 7
3.2705464 10.684826 -82.248192 7
4.1213241 10.690484 -82.024269 7
4.882494 10.685509 -82.257607 6
5.8815751 10.689607 -82.170769 5
6.2104497 10.692491 -82.106071 5.3333335
6.5336218 10.682085 -82.179459 5.5
7.1811504 10.692756 -82.123192 5
7.2672458 10.714486 -82.18531 4.5833335
7.8947549 10.689785 -82.152924 3.8888888
8.1292715 10.696307 -82.14756 4.6666665
8.6256876 10.702364 -82.104446 3.1041667
8.9955492 10.701723 -82.207794 2.6333334
9.3381405 10.710481 -82.280243 4.625
9.7650099 10.708642 -82.274956 3.8666668
10.196928 10.712586 -82.264259 3.8666668
10.578475 10.71579 -82.210472 4.1666665
10.953471 10.71595 -82.250534 4.25
11.424343 10.7128 -82.187614 2.9375
11.750125 10.711201 -82.241165 2.6187501
12.15562 10.712132 -82.237907 3.3611109
12.621325 10.713465 -82.286987 3.8
12.959167 10.71879 -82.012383 4
13.369239 10.708643 -82.305748 4.25
13.848259 10.715763 -82.205627 5
14.581079 10.726776 -82.21183 5.4444447
15.019135 10.737582 -82.335518 7
15.403322 10.738539 -82.306442 6.5
15.78883 10.736139 -82.142654 6
16.192886 10.724549 -82.259583 6
16.435883 10.729099 -82.165619 6
16.926226 10.709638 -82.229134 6.3333335
17.238325 10.736824 -82.114975 6
17.790684 10.722588 -82.191116 6
18.337936 10.742531 -82.147812 6
18.915745 10.767101 -82.297028 6
19.299406 10.754158 -82.258034 6
19.878609 10.737105 -82.163422 6
20.588127 10.736859 -82.21566 6
-34.810478 10.983854 -82.27681 12.170633
-34.766499 11.012678 -82.187378 12.368587
-28.139214 10.985604 -82.184883 10.872973
-14.423631 11.165737 -82.171532 8
-14.298459 11.084937 -82.225426 8.0175476
-13.802732 10.870481 -82.388695 7
-13.409451 10.901289 -82.113159 7
-10.101396 10.915075 -82.233894 6.8857145
-9.9135094 11.082174 -82.159042 8.046524
-6.0260496 11.157034 -82.379242 10.5
-5.8009763 11.063377 -82.220322 7.8467088
-2.2690089 11.017029 -82.17971 7.5297561
-1.7520853 11.052659 -82.086159 7.8832917
-1.3306723 11.133548 -82.078758 8.0559998
-0.88873911 11.141742 -82.152702 8.0555
-0.34818649 11.151785 -82.243393 8.0550003
1.489311 10.984747 -82.223206 7.52425
2.5718541 11.180864 -82.261192 8.0480003
7.4275632 11.049239 -82.18557 7.5907159
16.686081 11.004753 -82.057396 7
16.804504 10.833664 -82.076851 6.5
-34.80629 11.37765 -82.329865 13.349543
-34.769157 11.397561 -82.197998 12.968525
-28.150446 11.415005 -82.21357 11.266551
-14.429857 11.425223 -82.149986 8.8412046
-14.367348 11.478207 -82.277519 9.0444241
-13.609463 11.24147 -82.333969 8.0585003
-10.113286 11.445808 -82.167839 9.7105093
-9.9345179 11.335187 -82.188187 9.2969675
-5.8082523 11.26216 -82.23864 12.731035
-1.4630387 11.419084 -82.269882 9.4738302
-0.98247218 11.330652 -82.319283 9.0591259
-0.69037217 11.493854 -82.378998 9.0264997
-0.0047607422 11.343503 -82.035545 9.0480003
3.6674671 11.55817 -82.229134 9.0422497
7.1664987 11.573494 -82.2127 11.382333
7.3309603 11.396948 -82.158012 10.056542
16.729172 11.355076 -82.042358 8.6000004
17.158102 11.37746 -82.132042 8.7113333
17.382376 11.332816 -82.173492 8.58675
17.696453 11.380543 -82.215714 8.6344995
18.316208 11.263081 -82.326561 8.1350002
-34.809769 11.841898 -82.236511 15
-34.771656 11.740244 -82.193794 13.196899
-28.145861 11.8172 -82.187248 12.435137
-14.297951 11.754733 -82.214012 9.8757067
-13.609339 11.975793 -82.360947 9.0585003
-10.497869 11.651209 -82.151596 11.146875
-1.6707608 11.840762 -82.229607 10.797638
-1.5226301 11.754556 -82.256844 10.922969
-0.63483262 11.779458 -82.376831 10.919687
4.0591679 11.910106 -82.294037 10.043
5.8561234 11.995072 -82.035156 13.54925
6.0627804 11.966206 -82.256844 12.028251
6.6719284 11.715942 -82.243767 11.075
6.9822545 11.651939 -82.189514 11.216458
16.70052 11.673249 -82.048927 10.032249
17.034754 11.843172 -82.094116 10.630305
17.266476 11.708891 -82.16684 10.065001
17.699911 11.762573 -82.240936 10.134833
18.46426 11.700064 -82.327354 9.6350002
-34.862213 12.251807 -82.253181 12.329109
-28.131994 12.215864 -82.220734 12.336281
-13.750013 12.162888 -82.221733 11.016472
-13.498055 12.200622 -82.334839 11.132
-11.860295 12.160246 -82.226761 12.15125
-2.038723 12.284692 -82.144463 9
-1.7758757 12.189534 -82.249504 11.821354
-1.5555509 12.139644 -82.255623 12.483209
-0.53644323 12.151003 -82.379578 9.0144997
4.1033096 12.017819 -82.277039 12.058
5.4505863 12.17334 -82.167259 11.0775
5.7789202 12.059361 -82.257652 13.798188
17.151417 12.029473 -82.014015 10.1555
18.695877 12.309523 -82.10675 11.125999
18.89077 12.181172 -82.204979 11.13275
-34.869194 12.647873 -82.236305 12.565207
-28.135977 12.59679 -82.182396 12.795698
-27.996176 12.793251 -82.002586 14.5
-2.0743368 12.690537 -82.22274 11.879729
-1.8743892 12.543301 -82.239555 12.601657
-34.860188 13.030238 -82.24601 13.339053
-28.103186 13.012938 -82.208023 12.058866
-27.999245 12.847183 -82.076675 10.58875
-2.1455827 12.969704 -82.224014 12.044523
-1.9273568 12.923455 -82.227119 12.778461
-34.869804 13.309178 -82.239471 13.39977
-28.097628 13.417242 -82.231422 13.058438
-27.984499 13.437741 -82.048897 11.413333
-2.4654913 13.495764 -82.266296 12.02257
-2.2820811 13.406235 -82.212532 12.573539
-34.833179 13.763548 -82.185318 12.612101
-34.768032 13.853276 -82.160774 13.534083
-28.090199 13.795313 -82.22184 12.88692
-27.98959 13.77844 -82.041885 12.528125
-2.5297487 13.789235 -82.227196 13.06201
-2.3221092 13.70257 -82.225601 12.912545
21.15963 13.904037 -82.169365 13.266737
21.334517 13.820797 -82.209831 13.25
21.769165 13.803178 -82.245316 13.162643
-34.819756 14.103878 -82.249214 12.549749
-34.7729 14.157813 -82.165138 13.770207
-28.103855 14.131454 -82.246597 13.36163
-27.993416 14.246214 -82.070168 12.5
-2.8457267 14.256041 -82.29364 12.715051
-2.6687713 14.166371 -82.237343 13.000208
-2.3946719 14.110914 -82.193268 15
21.146898 14.198579 -82.184555 13.694443
-34.833733 14.579159 -82.247971 14.164437
-34.775715 14.613866 -82.15657 14.62085
-28.09119 14.552582 -82.217194 13.401187
-27.980232 14.520275 -82.070656 13.03125
-15.636932 14.561454 -82.138763 14.458333
-15.578181 14.619579 -82.188591 14.1165
-2.9114113 14.643033 -82.273979 13.668808
-2.7429209 14.518488 -82.185455 13.46466
21.160696 14.579182 -82.167343 13.386689
-34.835381 14.838441 -82.310013 13.374416
-34.56002 14.943666 -82.251404 14.551199
-30.055706 14.96815 -82.04747 15
-29.693518 14.943159 -82.06395 15
-29.345261 14.959219 -82.148453 15.0078
-28.980188 14.941272 -82.173882 15.013249
-28.461048 14.990068 -82.304146 15.040751
-28.248934 14.970355 -82.309998 15
-27.815641 14.844293 -82.239754 13.548841
-27.345276 14.961543 -82.164566 12.8035
-21.643007 14.898199 -82.147446 14.0535
-9.6396494 15.145451 -82.180412 14.10575
-9.462409 15.142455 -82.052017 15.1505
-3.2698054 15.185529 -82.288795 13.07
-3.0357587 14.958662 -82.232674 13.520599
20.769527 14.990995 -82.287636 11.064072
21.001791 14.925065 -82.184494 14.286316
-34.454174 15.309059 -82.2453 14.866833
-34.399731 15.35578 -82.080193 15
-33.863346 15.390382 -82.130028 14.03
-31.861729 15.427127 -82.339424 15.0495
-28.158356 15.250788 -82.012314 15
-27.284632 15.365063 -82.214836 13.11075
-20.903439 15.459216 -82.214577 14.313682
-20.73695 15.491894 -82.106949 13.14275
-9.6353607 15.380165 -82.170235 14.623938
-9.5351391 15.383134 -82.135361 13.804929
-9.0108347 15.529022 -82.201508 14.162944
-4.9433613 15.555751 -82.048325 13.086
-4.6960483 15.559039 -82.095055 14.028834
-4.3413177 15.573159 -82.046547 13.0345
-3.3022971 15.467049 -82.241829 14.040805
-3.1098776 15.323382 -82.196136 14.028204
8.8929281 15.555332 -82.029846 13.0235
20.778696 15.373859 -82.246315 13.884667
20.815683 15.370852 -82.147667 13.56455
-117.22902 15.781664 -82.162186 8
-27.424173 15.624022 -82.122047 12.78625
-20.868828 15.700775 -82.211021 15.102542
-20.536407 15.768714 -82.130333 13.836214
-20.201872 15.79077 -82.082108 15.083
-19.785006 15.864653 -82.194321 15.102875
-19.326677 15.886703 -82.158905 14.771667
-19.131645 15.909458 -82.22818 13.53625
-18.687286 15.903516 -82.256409 14.5975
-15.465748 15.887058 -82.113594 12.800999
-9.4623213 15.626455 -82.301353 14.101
-8.9767237 15.627851 -82.04438 14.059
-8.5967894 15.660278 -82.23217 14.0465
-8.2402906 15.687903 -82.218567 14.065834
-7.787961 15.737439 -82.132103 13.8457
-7.3485003 15.774722 -82.255257 14.341174
-6.9866724 15.806055 -82.185928 14.303688
-6.5646791 15.836462 -82.259216 14.444501
-6.1212616 15.88203 -82.319481 14.625963
-5.7503037 15.941803 -82.31707 14.884583
-5.5136833 15.929296 -82.294975 14.726001
-4.9636769 15.915912 -82.08326 15.0855
-4.5077677 15.839368 -82.074638 14.612918
-4.2008209 15.735838 -82.060516 13.950438
-3.845623 15.680639 -82.131691 14.316312
-3.4096026 15.795833 -82.175446 14.082114
-3.0195537 15.789825 -82.298096 14.320749
-2.6080725 15.853897 -82.324661 14.6645
-2.2109671 15.821362 -82.387642 14.80875
-1.9688392 15.83445 -82.310638 15.0775
8.9317474 15.831177 -82.188385 13.504569
22.098787 15.886422 -82.146713 12.379001
-27.682745 16.246056 -82.16925 14.155819
-27.588943 16.135698 -82.259758 14
-19.055014 16.015697 -82.237999 14.637751
-18.424425 16.017847 -82.214012 12.0405
-18.162914 16.051861 -82.38147 14.093
-17.790277 16.091026 -82.002502 13.0265
-17.250046 16.084837 -82.35276 15.1625
-16.562168 16.261587 -82.363731 15.1405
-15.632112 16.283201 -82.075943 14.0295
-15.471739 16.207306 -82.215302 14.208945
-14.596653 16.269453 -82.05526 15.1745
-14.07418 16.393772 -82.037682 14.53875
-13.633108 16.334366 -82.065231 14.031
-9.3105011 16.316486 -82.116829 15.11675
-5.0641756 16.00882 -82.143898 15.058
-4.1591854 16.109861 -82.135704 15.102437
-3.84958 16.098568 -82.151566 14.9263
-3.375211 16.104097 -82.225304 14.36025
-3.0470355 16.187584 -82.18615 14.910916
-2.6435211 16.194309 -82.192055 14.639501
-2.230365 16.164228 -82.285156 14.756454
-1.83197 16.327902 -82.313797 15.016001
-1.4015502 16.365784 -82.301239 15.014167
2.7494786 16.312519 -82.257248 13.4513
2.8385677 16.331417 -82.024513 13.123
9.0392447 16.095819 -82.111176 13.616375
10.21612 16.220406 -82.094444 15
10.576826 16.245457 -82.061905 15
11.000124 16.266581 -82.061401 15
11.388516 16.227165 -82.169334 14.383
11.841603 16.266518 -82.202385 14.034874
12.160109 16.328312 -82.245346 14.759
12.678345 16.319038 -82.347183 14.528749
12.852398 16.30797 -82.345917 15
14.222809 16.350552 -82.018135 14.034
15.198297 16.146816 -82.153732 13.0285
15.321162 16.235462 -82.197845 13.925222
22.095707 16.23992 -82.212479 12.55675
-27.685307 16.613222 -82.209038 14.269808
-27.522795 16.634964 -82.052895 15.0645
-27.001644 16.795074 -82.375801 14.5755
-26.581682 16.728533 -82.119598 15.133875
-26.050072 16.771505 -82.116463 14.153
