# .PCD v0.7 - Point Cloud Data file format
VERSION 0.7
FIELDS x y z
SIZE 4 4 4
TYPE F F F
COUNT 1 1 1
WIDTH 1559
HEIGHT 1
VIEWPOINT 0 0 0 1 0 0 0
POINTS 1559
DATA ascii
-7.8230953 73.198349 10.943676
-7.8230953 74.048347 10.918006
-7.8230953 74.348351 10.908947
-7.8230953 74.648346 10.899887
-7.8230953 74.948349 10.890827
-7.8230953 75.248344 10.881767
-7.6230955 73.498344 10.934875
-7.5730953 75.448349 10.876051
-7.5230951 67.798347 11.10714
-7.5230951 68.098351 11.09808
-7.5230951 68.398346 11.08902
-7.5230951 68.698349 11.07996
-7.5230951 68.998344 11.0709
-7.5230951 69.298347 11.06184
-7.5230951 69.598351 11.052781
-7.5230951 69.898346 11.043721
-7.5230951 70.198349 11.034661
-7.5230951 70.498344 11.025601
-7.5230951 70.798347 11.016541
-7.5230951 71.098351 11.007482
-7.5230951 71.398346 10.998423
-7.5230951 71.698349 10.989363
-7.5230951 74.048347 10.918394
-7.5230951 74.348351 10.909335
-7.5230951 74.648346 10.900275
-7.5230951 74.948349 10.891215
-7.3230953 75.198349 10.883924
-7.2730951 71.948349 10.982136
-7.2230954 67.848351 11.106017
-7.2230954 68.148346 11.096957
-7.2230954 68.448349 11.087898
-7.2230954 68.748344 11.078838
-7.2230954 69.048347 11.069778
-7.2230954 69.348351 11.060719
-7.2230954 69.648346 11.051659
-7.2230954 69.948349 11.042599
-7.2230954 70.248344 11.03354
-7.2230954 70.548347 11.02448
-7.2230954 70.848351 11.01542
-7.2230954 71.148346 11.00636
-7.2230954 71.448349 10.9973
-7.2230954 74.498344 10.905193
-7.2230954 74.798347 10.896133
-7.1230955 75.448349 10.876633
-7.0230951 75.048347 10.888843
-6.9230952 67.798347 11.107916
-6.9230952 68.098351 11.098856
-6.9230952 68.398346 11.089796
-6.9230952 68.698349 11.080736
-6.9230952 68.998344 11.071676
-6.9230952 69.298347 11.062616
-6.9230952 69.598351 11.053557
-6.9230952 69.898346 11.044497
-6.9230952 70.198349 11.035438
-6.9230952 70.498344 11.026378
-6.9230952 70.798347 11.017318
-6.9230952 71.098351 11.008258
-6.9230952 71.398346 10.999199
-6.9230952 74.548347 10.904071
-6.8230953 75.298347 10.881551
-6.7730951 74.848351 10.895205
-6.6230955 67.848351 11.106793
-6.6230955 68.148346 11.097733
-6.6230955 68.448349 11.088675
-6.6230955 68.748344 11.079615
-6.6230955 69.048347 11.070555
-6.6230955 69.348351 11.061495
-6.6230955 69.648346 11.052435
-6.6230955 69.948349 11.043375
-6.6230955 70.248344 11.034316
-6.6230955 70.548347 11.025256
-6.6230955 74.498344 10.90597
-6.5730953 75.098351 10.887915
-6.5230951 75.398346 10.87892
-6.4730954 74.798347 10.897103
-6.3730955 73.148346 10.947062
-6.3230953 67.798347 11.108692
-6.3230953 68.098351 11.099632
-6.3230953 68.398346 11.090572
-6.3230953 68.698349 11.081512
-6.3230953 68.998344 11.072453
-6.3230953 69.298347 11.063393
-6.3230953 69.598351 11.054334
-6.3230953 69.898346 11.045274
-6.3230953 73.498344 10.936557
-6.2730951 73.798347 10.927562
-6.2730951 75.048347 10.889812
-6.2230954 75.348351 10.880817
-6.0730953 73.248344 10.944429
-6.0230951 67.798347 11.10908
-6.0230951 68.098351 11.10002
-6.0230951 68.398346 11.090961
-6.0230951 68.698349 11.081901
-6.0230951 68.998344 11.072841
-6.0230951 69.298347 11.063781
-6.0230951 73.548347 10.935434
-6.0230951 73.998344 10.921845
-5.9730954 74.948349 10.893221
-5.9230952 75.248344 10.884226
-5.7730951 73.348351 10.941798
-5.7730951 73.748344 10.929718
-5.7230954 67.848351 11.107958
-5.7230954 68.148346 11.098898
-5.7230954 68.448349 11.089839
-5.7230954 68.748344 11.080779
-5.7230954 69.048347 11.071719
-5.7230954 69.348351 11.062659
-5.6730952 75.048347 10.890589
-5.6730952 75.448349 10.87851
-5.6230955 69.998344 11.043159
-5.5730953 69.648346 11.053794
-5.5730953 70.448349 11.029634
-5.5730953 72.398346 10.970746
-5.5730953 72.848351 10.957156
-5.5730953 73.998344 10.922427
-5.5230951 71.348351 11.00252
-5.5230951 73.148346 10.948161
-5.4730954 73.648346 10.933126
-5.4230952 67.798347 11.109857
-5.4230952 68.098351 11.100797
-5.4230952 68.398346 11.091737
-5.4230952 68.698349 11.082677
-5.4230952 68.998344 11.073617
-5.4230952 69.298347 11.064557
-5.4230952 70.748344 11.020769
-5.4230952 75.248344 10.884872
-5.3730955 70.198349 11.037443
-5.3230953 69.848351 11.048078
-5.3230953 72.598351 10.96503
-5.2730951 71.548347 10.996803
-5.2730951 72.898346 10.956035
-5.2730951 73.898346 10.925836
-5.2230954 69.548347 11.057266
-5.2230954 70.498344 11.028577
-5.2230954 71.148346 11.008947
-5.1230955 68.448349 11.090615
-5.1230955 68.748344 11.081555
-5.1230955 69.048347 11.072495
-5.1230955 70.798347 11.019647
-5.0730953 70.048347 11.042361
-5.0230951 72.548347 10.966928
-5.0230951 73.698349 10.932199
-4.9730954 69.348351 11.06363
-4.9730954 69.748344 11.05155
-4.9230952 67.798347 11.110503
-4.9230952 70.348351 11.033495
-4.9230952 71.048347 11.012356
-4.8230953 68.448349 11.091003
-4.8230953 68.748344 11.081944
-4.7730951 72.748344 10.961211
-4.7230954 73.248344 10.946177
-4.7230954 73.548347 10.937117
-4.6230955 70.198349 11.038413
-4.5230951 72.498344 10.969085
-4.5230951 72.948349 10.955495
-4.4730954 75.248344 10.886102
-4.4230952 69.648346 11.055282
-4.4230952 70.448349 11.031122
-4.4230952 70.748344 11.022062
-4.4230952 73.598351 10.935995
-4.3730955 69.298347 11.065916
-4.3730955 71.198349 11.008537
-4.3730955 71.548347 10.997968
-4.3230953 70.098351 11.041821
-4.3230953 71.848351 10.988973
-4.2230954 67.798347 11.111409
-4.2230954 75.448349 10.880385
-4.1730952 70.948349 11.016346
-4.0730953 69.248344 11.067814
-4.0730953 71.598351 10.996846
-4.0230951 68.448349 11.092038
-3.9730954 67.998344 11.105692
-3.9730954 74.798347 10.900338
-3.9730954 75.198349 10.888258
-3.7730954 75.448349 10.880967
-3.7230954 67.798347 11.112056
-3.7230954 74.998344 10.894622
-3.5730953 74.698349 10.903875
-3.5230954 75.248344 10.887331
-3.4730954 74.398346 10.913065
-3.4230952 67.798347 11.112444
-3.4230952 68.248344 11.098854
-3.3730953 74.948349 10.896585
-3.2730954 74.098351 10.922383
-3.2730954 74.648346 10.905773
-3.2730954 75.448349 10.881615
-3.1730952 67.998344 11.106728
-3.1230953 73.648346 10.936167
-3.1230953 75.148346 10.890868
-3.0730953 73.298347 10.946801
-3.0730953 74.348351 10.915092
-3.0230954 74.848351 10.900057
-2.9730954 68.248344 11.099437
-2.9730954 73.948349 10.927301
-2.9730954 75.448349 10.882003
-2.9230952 67.798347 11.113091
-2.8730953 69.198349 11.070876
-2.8230953 68.798347 11.083021
-2.8230953 72.698349 10.965244
-2.8230953 73.498344 10.941085
-2.8230953 74.548347 10.909376
-2.8230953 75.098351 10.892766
-2.7730954 73.198349 10.95021
-2.7730954 74.198349 10.920011
-2.7230954 68.048347 11.1058
-2.7230954 68.448349 11.09372
-2.6730952 73.798347 10.93222
-2.6730952 75.398346 10.883901
-2.6230953 74.798347 10.902084
-2.5730953 72.498344 10.971607
-2.5730953 72.898346 10.959528
-2.5230954 67.798347 11.113608
-2.5230954 68.698349 11.086429
-2.5230954 73.398346 10.944493
-2.5230954 74.398346 10.914294
-2.5230954 75.098351 10.893154
-2.4730954 68.248344 11.100083
-2.4730954 74.048347 10.924928
-2.4230952 72.098351 10.983881
-2.3730953 73.698349 10.935627
-2.3730953 75.398346 10.884289
-2.3230953 72.698349 10.965891
-2.3230953 73.098351 10.953812
-2.3230953 74.648346 10.907002
-2.2730954 67.998344 11.107892
-2.2730954 68.498344 11.092793
-2.2730954 68.898346 11.080712
-2.2730954 71.648346 10.997664
-2.2730954 72.398346 10.975016
-2.2230954 73.398346 10.944881
-2.2230954 74.248344 10.919211
-2.2230954 74.948349 10.898072
-2.1730952 73.948349 10.928336
-2.1230953 71.948349 10.988799
-2.0730953 68.248344 11.100601
-2.0730953 72.898346 10.960175
-2.0730953 75.248344 10.889207
-2.0230954 67.798347 11.114255
-2.0230954 68.698349 11.087076
-2.0230954 69.098351 11.074996
-2.0230954 72.598351 10.969299
-2.0230954 73.648346 10.93759
-2.0230954 74.498344 10.911921
-1.9730953 71.548347 11.001073
-1.9730953 72.248344 10.979934
-1.9730953 73.198349 10.951244
-1.9230953 74.148346 10.92262
-1.9230953 74.798347 10.90299
-1.8230953 68.048347 11.106964
-1.8230953 68.448349 11.094885
-1.8230953 71.848351 10.992208
-1.8230953 75.448349 10.883491
-1.7730954 68.898346 11.08136
-1.7730954 71.298347 11.008882
-1.7730954 72.798347 10.963583
-1.7730954 73.448349 10.943954
-1.7730954 73.848351 10.931873
-1.7730954 75.098351 10.894125
-1.7230953 72.448349 10.974217
-1.7230953 74.398346 10.915329
-1.6730953 72.148346 10.983341
-1.6730953 73.098351 10.954653
-1.6230953 67.798347 11.114773
-1.6230953 70.448349 11.034745
-1.6230953 71.598351 11.000016
-1.6230953 74.698349 10.906399
-1.5730953 68.248344 11.101248
-1.5730953 68.648346 11.089168
-1.5730953 69.148346 11.074068
-1.5730953 70.748344 11.02575
-1.5730953 74.098351 10.924582
-1.5230954 70.098351 11.045444
-1.5230954 71.048347 11.016755
-1.5230954 73.648346 10.938237
-1.5230954 75.298347 10.888409
-1.4730953 71.898346 10.99115
-1.4730953 72.648346 10.968501
-1.4730953 73.348351 10.947361
-1.4730953 74.998344 10.897532
-1.4230953 69.448349 11.065203
-1.4230953 71.348351 11.007824
-1.4230953 72.348351 10.977625
-1.4230953 74.398346 10.915717
-1.3730953 67.998344 11.109056
-1.3730953 68.898346 11.081877
-1.3730953 72.948349 10.959571
-1.3230953 68.448349 11.095531
-1.3230953 70.348351 11.038153
-1.3230953 73.898346 10.930946
-1.3230953 74.698349 10.906787
-11.383591 83.420776 10.62844
-11.383591 83.720779 10.619993
-11.383591 84.020775 10.611546
-11.383591 84.320778 10.603099
-11.383591 84.620773 10.594652
-11.383591 84.920776 10.586205
-11.383591 85.220779 10.577759
-11.383591 85.520775 10.569312
-11.383591 85.820778 10.560864
-11.383591 86.120773 10.552418
-11.383591 86.420776 10.543971
-11.383591 86.720779 10.535524
-11.383591 87.020775 10.527078
-11.383591 87.320778 10.518631
-11.383591 87.620773 10.510183
-11.383591 87.920776 10.501737
-11.383591 88.220779 10.49329
-11.383591 88.520775 10.484843
-11.383591 88.820778 10.476397
-11.383591 89.120773 10.46795
-11.383591 89.420776 10.459503
-11.383591 89.720779 10.451056
-11.383591 90.020775 10.442609
-11.383591 90.320778 10.434162
-11.383591 90.620773 10.425715
-11.383591 90.920776 10.417269
-11.383591 91.220779 10.408822
-11.383591 91.520775 10.400374
-11.383591 91.820778 10.391928
-11.383591 92.120773 10.383481
-11.383591 92.420776 10.375034
-11.383591 92.720779 10.366588
-11.383591 93.020775 10.358141
-11.383591 93.320778 10.349693
-11.383591 93.620773 10.341247
-11.383591 93.920776 10.3328
-11.383591 94.220779 10.324353
-11.383591 94.520775 10.315907
-11.383591 94.820778 10.30746
-11.383591 95.120773 10.299013
-11.383591 95.420776 10.290565
-11.383591 95.720779 10.282119
-11.383591 96.020775 10.273672
-11.383591 96.320778 10.265225
-11.383591 96.620773 10.256779
-11.383591 98.120773 10.214544
-11.383591 98.420776 10.206098
-11.383591 98.720779 10.197651
-11.183591 98.970779 10.190661
-11.133591 97.570778 10.230093
-11.083591 83.420776 10.628515
-11.083591 83.720779 10.620068
-11.083591 84.020775 10.611621
-11.083591 84.320778 10.603174
-11.083591 84.620773 10.594728
-11.083591 84.920776 10.586281
-11.083591 85.220779 10.577834
-11.083591 85.520775 10.569387
-11.083591 85.820778 10.56094
-11.083591 86.120773 10.552493
-11.083591 86.420776 10.544046
-11.083591 86.720779 10.5356
-11.083591 87.020775 10.527153
-11.083591 87.320778 10.518706
-11.083591 87.620773 10.510259
-11.083591 87.920776 10.501812
-11.083591 88.220779 10.493365
-11.083591 88.520775 10.484919
-11.083591 88.820778 10.476472
-11.083591 89.120773 10.468025
-11.083591 89.420776 10.459578
-11.083591 89.720779 10.451131
-11.083591 90.020775 10.442684
-11.083591 90.320778 10.434237
-11.083591 90.620773 10.425791
-11.083591 90.920776 10.417344
-11.083591 91.220779 10.408897
-11.083591 91.520775 10.40045
-11.083591 91.820778 10.392003
-11.083591 92.120773 10.383556
-11.083591 92.420776 10.37511
-11.083591 92.720779 10.366663
-11.083591 93.020775 10.358216
-11.083591 93.320778 10.349769
-11.083591 93.620773 10.341322
-11.083591 93.920776 10.332875
-11.083591 94.220779 10.324429
-11.083591 94.520775 10.315982
-11.083591 94.820778 10.307535
-11.083591 95.120773 10.299088
-11.083591 95.420776 10.290641
-11.083591 98.470779 10.204765
-10.933591 98.770775 10.196356
-10.78359 83.420776 10.628591
-10.78359 83.720779 10.620143
-10.78359 84.020775 10.611696
-10.78359 84.320778 10.60325
-10.78359 84.620773 10.594803
-10.78359 84.920776 10.586356
-10.78359 85.220779 10.577909
-10.78359 85.520775 10.569462
-10.78359 85.820778 10.561015
-10.78359 86.120773 10.552568
-10.78359 86.420776 10.544122
-10.78359 86.720779 10.535675
-10.78359 87.020775 10.527228
-10.78359 87.320778 10.518782
-10.78359 87.620773 10.510334
-10.78359 87.920776 10.501887
-10.78359 88.220779 10.493441
-10.78359 88.520775 10.484994
-10.78359 88.820778 10.476547
-10.78359 89.120773 10.468101
-10.78359 89.420776 10.459653
-10.78359 89.720779 10.451206
-10.78359 90.020775 10.44276
-10.78359 90.320778 10.434313
-10.78359 90.620773 10.425866
-10.78359 90.920776 10.417419
-10.78359 91.220779 10.408972
-10.78359 91.520775 10.400525
-10.78359 91.820778 10.392078
-10.78359 92.120773 10.383632
-10.78359 92.420776 10.375185
-10.78359 92.720779 10.366738
-10.78359 93.020775 10.358292
-10.78359 93.320778 10.349844
-10.78359 93.620773 10.341397
-10.78359 93.920776 10.332951
-10.78359 94.220779 10.324504
-10.78359 94.520775 10.316057
-10.78359 94.820778 10.307611
-10.78359 95.620773 10.285085
-10.683591 98.570778 10.202049
-10.683591 98.970779 10.190787
-10.483591 83.470779 10.627257
-10.483591 83.770775 10.618811
-10.483591 84.070778 10.610364
-10.483591 84.370773 10.601917
-10.483591 84.670776 10.593471
-10.483591 84.970779 10.585024
-10.483591 85.270775 10.576576
-10.483591 85.570778 10.56813
-10.483591 85.870773 10.559683
-10.483591 86.170776 10.551236
-10.483591 86.470779 10.542789
-10.483591 86.770775 10.534343
-10.483591 87.070778 10.525895
-10.483591 87.370773 10.517448
-10.483591 87.670776 10.509002
-10.483591 87.970779 10.500555
-10.483591 88.270775 10.492108
-10.483591 88.570778 10.483662
-10.483591 88.870773 10.475214
-10.483591 89.170776 10.466767
-10.483591 89.470779 10.458321
-10.483591 89.770775 10.449874
-10.483591 90.070778 10.441427
-10.483591 90.370773 10.432981
-10.483591 90.670776 10.424534
-10.483591 90.970779 10.416086
-10.483591 91.270775 10.40764
-10.483591 91.570778 10.399193
-10.483591 91.870773 10.390746
-10.483591 92.170776 10.382299
-10.483591 92.470779 10.373853
-10.483591 92.770775 10.365405
-10.483591 93.070778 10.356958
-10.483591 93.370773 10.348512
-10.483591 93.670776 10.340065
-10.483591 93.970779 10.331618
-10.483591 94.270775 10.323172
-10.483591 94.770775 10.309093
-10.383591 98.870773 10.193678
-10.183591 83.420776 10.62874
-10.183591 83.720779 10.620294
-10.183591 84.020775 10.611847
-10.183591 84.320778 10.6034
-10.183591 84.620773 10.594954
-10.183591 84.920776 10.586507
-10.183591 85.220779 10.57806
-10.183591 85.520775 10.569613
-10.183591 85.820778 10.561166
-10.183591 86.120773 10.552719
-10.183591 86.420776 10.544272
-10.183591 86.720779 10.535826
-10.183591 87.020775 10.527379
-10.183591 87.320778 10.518931
-10.183591 87.620773 10.510485
-10.183591 87.920776 10.502038
-10.183591 88.220779 10.493591
-10.183591 88.520775 10.485145
-10.183591 88.820778 10.476698
-10.183591 89.120773 10.46825
-10.183591 89.420776 10.459804
-10.183591 89.720779 10.451357
-10.183591 90.020775 10.44291
-10.183591 90.320778 10.434464
-10.183591 90.620773 10.426017
-10.183591 90.920776 10.41757
-10.183591 91.220779 10.409122
-10.183591 91.520775 10.400676
-10.183591 91.820778 10.392229
-10.183591 92.120773 10.383782
-10.183591 92.420776 10.375336
-10.183591 92.720779 10.366889
-10.183591 93.020775 10.358441
-10.183591 93.320778 10.349995
-10.183591 93.620773 10.341548
-10.183591 93.920776 10.333101
-10.183591 94.220779 10.324655
-9.8835907 83.420776 10.628816
-9.8835907 83.720779 10.620369
-9.8835907 84.020775 10.611922
-9.8835907 84.320778 10.603476
-9.8835907 84.620773 10.595029
-9.8835907 84.920776 10.586582
-9.8835907 85.220779 10.578135
-9.8835907 85.520775 10.569688
-9.8835907 85.820778 10.561241
-9.8835907 86.120773 10.552794
-9.8835907 86.420776 10.544348
-9.8835907 86.720779 10.535901
-9.8835907 87.020775 10.527454
-9.8835907 87.320778 10.519007
-9.8835907 87.620773 10.51056
-9.8835907 87.920776 10.502113
-9.8835907 88.220779 10.493667
-9.8835907 88.520775 10.48522
-9.8835907 88.820778 10.476773
-9.8835907 89.120773 10.468326
-9.8835907 89.420776 10.459879
-9.8835907 89.720779 10.451432
-9.8835907 90.020775 10.442986
-9.8835907 90.320778 10.434539
-9.8835907 90.620773 10.426092
-9.8835907 90.920776 10.417645
-9.8835907 91.220779 10.409198
-9.8835907 91.520775 10.400751
-9.8835907 91.820778 10.392304
-9.8835907 92.120773 10.383858
-9.8835907 92.420776 10.375411
-9.8835907 92.720779 10.366964
-9.8835907 93.020775 10.358517
-9.8835907 93.320778 10.35007
-9.6335907 97.270775 10.238916
-9.5835905 83.420776 10.628891
-9.5835905 83.720779 10.620444
-9.5835905 84.020775 10.611998
-9.5835905 84.320778 10.603551
-9.5835905 84.620773 10.595104
-9.5835905 84.920776 10.586658
-9.5835905 85.220779 10.57821
-9.5835905 85.520775 10.569763
-9.5835905 85.820778 10.561316
-9.5835905 86.120773 10.55287
-9.5835905 86.420776 10.544423
-9.5835905 86.720779 10.535976
-9.5835905 87.020775 10.527529
-9.5835905 87.320778 10.519082
-9.5835905 87.620773 10.510635
-9.5835905 87.920776 10.502189
-9.5835905 88.220779 10.493742
-9.5835905 88.520775 10.485295
-9.5835905 88.820778 10.476849
-9.5835905 89.120773 10.468401
-9.5835905 89.420776 10.459954
-9.5835905 89.720779 10.451508
-9.5835905 90.020775 10.443061
-9.5835905 90.320778 10.434614
-9.5835905 90.620773 10.426167
-9.5835905 90.920776 10.41772
-9.5835905 91.220779 10.409273
-9.5835905 91.520775 10.400826
-9.5835905 91.820778 10.39238
-9.5835905 92.120773 10.383933
-9.5835905 92.420776 10.375486
-9.5835905 92.720779 10.367039
-9.5835905 93.020775 10.358592
-9.5835905 96.470779 10.261454
-9.5835905 96.820778 10.251599
-9.5835905 97.570778 10.230482
-9.5335903 96.070778 10.272729
-9.4335909 97.970779 10.219257
-9.3835907 97.070778 10.24461
-9.3335905 97.370773 10.236176
-9.2835903 83.420776 10.628966
-9.2835903 83.720779 10.62052
-9.2835903 84.020775 10.612073
-9.2835903 84.320778 10.603626
-9.2835903 84.620773 10.59518
-9.2835903 84.920776 10.586733
-9.2835903 85.220779 10.578285
-9.2835903 85.520775 10.569839
-9.2835903 85.820778 10.561392
-9.2835903 86.120773 10.552945
-9.2835903 86.420776 10.544498
-9.2835903 86.720779 10.536052
-9.2835903 87.020775 10.527604
-9.2835903 87.320778 10.519157
-9.2835903 87.620773 10.510711
-9.2835903 87.920776 10.502264
-9.2835903 88.220779 10.493817
-9.2835903 88.520775 10.485371
-9.2835903 88.820778 10.476923
-9.2835903 89.120773 10.468476
-9.2835903 89.420776 10.46003
-9.2835903 89.720779 10.451583
-9.2835903 90.020775 10.443136
-9.2835903 90.320778 10.43469
-9.2835903 90.620773 10.426243
-9.2835903 90.920776 10.417795
-9.2835903 91.220779 10.409348
-9.2835903 91.520775 10.400902
-9.2835903 91.820778 10.392455
-9.2835903 92.120773 10.384008
-9.2835903 92.420776 10.375562
-9.2835903 92.820778 10.364299
-9.2835903 96.270775 10.26716
-9.2835903 96.570778 10.258714
-9.2835903 97.670776 10.227741
-9.2335911 94.420776 10.319262
-9.1835909 94.720779 10.310827
-9.1835909 95.570778 10.286895
-9.1335907 95.920776 10.277053
-9.1335907 96.870773 10.250304
-9.0835905 95.020775 10.302405
-9.0835905 97.170776 10.24187
-9.0335903 97.470779 10.233436
-8.9835911 83.470779 10.627634
-8.9835911 83.770775 10.619187
-8.9835911 84.070778 10.610741
-8.9835911 84.370773 10.602294
-8.9835911 84.670776 10.593846
-8.9835911 84.970779 10.5854
-8.9835911 85.270775 10.576953
-8.9835911 85.570778 10.568506
-8.9835911 85.870773 10.56006
-8.9835911 86.170776 10.551613
-8.9835911 86.470779 10.543165
-8.9835911 86.770775 10.534719
-8.9835911 87.070778 10.526272
-8.9835911 87.370773 10.517825
-8.9835911 87.670776 10.509378
-8.9835911 87.970779 10.500932
-8.9835911 88.270775 10.492485
-8.9835911 88.570778 10.484037
-8.9835911 88.870773 10.475591
-8.9835911 89.170776 10.467144
-8.9835911 89.470779 10.458697
-8.9835911 89.770775 10.450251
-8.9835911 90.070778 10.441804
-8.9835911 90.370773 10.433356
-8.9835911 90.670776 10.42491
-8.9835911 90.970779 10.416463
-8.9835911 91.270775 10.408016
-8.9835911 91.570778 10.39957
-8.9835911 91.870773 10.391123
-8.9835911 92.170776 10.382675
-8.9835911 95.320778 10.293983
-8.9835911 96.220779 10.268643
-8.9835911 96.520775 10.260197
-8.9835911 97.770775 10.225001
-8.9335909 94.520775 10.316522
-8.8835907 95.620773 10.285562
-8.8335905 94.820778 10.3081
-8.7835903 93.920776 10.333452
-8.7335911 93.170776 10.354582
-8.7335911 95.120773 10.299678
-8.6835909 83.420776 10.629117
-8.6835909 83.720779 10.62067
-8.6835909 84.020775 10.612224
-8.6835909 84.320778 10.603777
-8.6835909 84.620773 10.59533
-8.6835909 84.920776 10.586883
-8.6835909 85.220779 10.578436
-8.6835909 85.520775 10.569989
-8.6835909 85.820778 10.561543
-8.6835909 86.120773 10.553096
-8.6835909 86.420776 10.544649
-8.6835909 86.720779 10.536201
-8.6835909 87.020775 10.527755
-8.6835909 87.320778 10.519308
-8.6835909 87.620773 10.510861
-8.6835909 87.920776 10.502415
-8.6835909 88.220779 10.493968
-8.6835909 88.520775 10.485521
-8.6835909 88.820778 10.477074
-8.6835909 89.120773 10.468627
-8.6835909 89.420776 10.46018
-8.6835909 89.720779 10.451734
-8.6835909 90.020775 10.443287
-8.6835909 90.320778 10.43484
-8.6835909 90.620773 10.426393
-8.6835909 90.920776 10.417946
-8.6835909 91.220779 10.409499
-8.6835909 93.620773 10.341925
-8.6835909 94.220779 10.325031
-8.6335907 94.520775 10.316597
-8.6335907 95.420776 10.291256
-8.5835905 92.870773 10.363067
-8.5835905 95.720779 10.282822
-8.5335903 94.820778 10.308175
-8.4835911 93.370773 10.349013
-8.4835911 93.870773 10.334936
-8.4835911 98.970779 10.191339
-8.4335909 95.120773 10.299753
-8.3835907 83.420776 10.629192
-8.3835907 83.720779 10.620746
-8.3835907 84.020775 10.612299
-8.3835907 84.320778 10.603852
-8.3835907 84.620773 10.595406
-8.3835907 84.920776 10.586958
-8.3835907 85.220779 10.578511
-8.3835907 85.520775 10.570065
-8.3835907 85.820778 10.561618
-8.3835907 86.120773 10.553171
-8.3835907 86.420776 10.544724
-8.3835907 86.720779 10.536277
-8.3835907 87.020775 10.52783
-8.3835907 87.320778 10.519383
-8.3835907 87.620773 10.510937
-8.3835907 87.920776 10.50249
-8.3835907 88.220779 10.494043
-8.3835907 88.520775 10.485596
-8.3835907 88.820778 10.477149
-8.3835907 89.120773 10.468702
-8.3835907 89.420776 10.460256
-8.3835907 89.720779 10.451809
-8.3835907 90.020775 10.443362
-8.3835907 90.320778 10.434916
-8.3835907 90.620773 10.426468
-8.3835907 90.920776 10.418021
-8.3835907 92.370773 10.377195
-8.3835907 94.170776 10.326514
-8.3335905 92.670776 10.368761
-8.3335905 94.470779 10.31808
-8.3335905 95.420776 10.291331
-8.3335905 95.920776 10.277253
-8.3335905 96.270775 10.267399
-8.2835903 98.720779 10.198428
-8.2335911 92.020775 10.387087
-8.2335911 94.770775 10.309658
-8.1835909 93.270775 10.351905
-8.1335907 95.070778 10.301236
-8.1335907 95.670776 10.284343
-8.0835905 83.420776 10.629268
-8.0835905 83.720779 10.620821
-8.0835905 84.020775 10.612374
-8.0835905 84.320778 10.603928
-8.0835905 84.620773 10.59548
-8.0835905 84.920776 10.587033
-8.0835905 85.220779 10.578587
-8.0835905 85.520775 10.57014
-8.0835905 85.820778 10.561693
-8.0835905 86.120773 10.553246
-8.0835905 86.420776 10.5448
-8.0835905 86.720779 10.536352
-8.0835905 87.020775 10.527905
-8.0835905 87.320778 10.519459
-8.0835905 87.620773 10.511012
-8.0835905 87.920776 10.502565
-8.0835905 88.220779 10.494119
-8.0835905 88.520775 10.485671
-8.0835905 88.820778 10.477224
-8.0835905 89.120773 10.468778
-8.0835905 89.420776 10.460331
-8.0835905 89.720779 10.451884
-8.0835905 90.020775 10.443438
-8.0835905 90.320778 10.43499
-8.0835905 92.320778 10.378678
-8.0835905 94.070778 10.329405
-8.0835905 98.970779 10.19144
-8.0335903 92.620773 10.370244
-8.0335903 94.370773 10.320971
-8.0335903 95.370773 10.292814
-8.0335903 95.970779 10.275921
-8.0335903 96.270775 10.267474
-8.0335903 97.620773 10.229463
-8.0335903 98.520775 10.204123
-7.9335909 93.470779 10.346336
-7.9335909 94.670776 10.312549
-7.9335909 97.920776 10.221042
-7.8835907 93.120773 10.356203
-7.8835907 98.220779 10.212607
-7.8335905 94.970779 10.304127
-7.8335905 95.620773 10.285826
-7.8335905 98.770775 10.197134
-7.7835908 83.470779 10.627935
-7.7835908 83.770775 10.619489
-7.7835908 84.070778 10.611042
-7.7835908 84.370773 10.602594
-7.7835908 84.670776 10.594148
-7.7835908 84.970779 10.585701
-7.7835908 85.270775 10.577254
-7.7835908 85.570778 10.568808
-7.7835908 85.870773 10.560361
-7.7835908 86.170776 10.551913
-7.7835908 86.470779 10.543467
-7.7835908 86.770775 10.53502
-7.7835908 87.070778 10.526573
-7.7835908 87.370773 10.518126
-7.7835908 87.670776 10.50968
-7.7835908 87.970779 10.501232
-7.7835908 88.270775 10.492785
-7.7835908 88.570778 10.484339
-7.7835908 88.870773 10.475892
-7.7835908 89.170776 10.467445
-7.7835908 89.470779 10.458999
-7.7835908 89.770775 10.450552
-7.7835908 94.120773 10.328073
-7.7835908 97.420776 10.235157
-7.7335906 92.470779 10.374542
-7.7335906 94.420776 10.319638
-7.7335906 95.270775 10.295705
-7.7335906 95.920776 10.277404
-7.7335906 96.220779 10.268957
-7.6835909 97.720779 10.226735
-7.6835909 98.470779 10.205618
-7.6335907 91.520775 10.401316
-7.6335907 93.320778 10.350635
-7.6335907 94.720779 10.311216
-7.6335907 98.020775 10.218301
-7.5835905 97.170776 10.242247
-7.5835905 98.970779 10.191566
-7.5335908 89.970779 10.444983
-7.5335908 95.020775 10.302794
-7.5335908 95.520775 10.288716
-7.4835906 83.420776 10.629418
-7.4835906 83.720779 10.620972
-7.4835906 84.020775 10.612525
-7.4835906 84.320778 10.604078
-7.4835906 84.620773 10.595631
-7.4835906 84.920776 10.587184
-7.4835906 85.220779 10.578737
-7.4835906 85.520775 10.570291
-7.4835906 85.820778 10.561844
-7.4835906 86.120773 10.553397
-7.4835906 86.420776 10.54495
-7.4835906 86.720779 10.536503
-7.4835906 87.020775 10.528056
-7.4835906 87.320778 10.519609
-7.4835906 87.620773 10.511163
-7.4835906 87.920776 10.502716
-7.4835906 88.220779 10.494268
-7.4835906 88.520775 10.485822
-7.4835906 88.820778 10.477375
-7.4835906 89.120773 10.468928
-7.4835906 89.420776 10.460482
-7.4835906 90.320778 10.435141
-7.4835906 93.620773 10.342226
-7.4835906 93.920776 10.333778
-7.4835906 94.220779 10.325332
-7.4835906 97.470779 10.233825
-7.4335909 91.770775 10.394327
-7.4335909 95.820778 10.280294
-7.4335909 96.120773 10.271848
-7.4335909 98.270775 10.211312
-7.4335909 98.670776 10.200049
-7.3835907 94.520775 10.31691
-7.3835907 96.920776 10.249335
-7.3835907 97.770775 10.225403
-7.3335905 91.320778 10.407022
-7.3335905 93.270775 10.352118
-7.3335905 95.270775 10.295806
-7.2835908 94.820778 10.308489
-7.2835908 97.220779 10.240913
-7.2335906 89.870773 10.447874
-7.2335906 98.920776 10.193061
-7.1835909 83.470779 10.628086
-7.1835909 83.770775 10.619639
-7.1835909 84.070778 10.611192
-7.1835909 84.370773 10.602745
-7.1835909 84.670776 10.594298
-7.1835909 84.970779 10.585852
-7.1835909 85.270775 10.577405
-7.1835909 85.570778 10.568958
-7.1835909 85.870773 10.560511
-7.1835909 86.170776 10.552064
-7.1835909 86.470779 10.543617
-7.1835909 86.770775 10.535171
-7.1835909 87.070778 10.526724
-7.1835909 87.370773 10.518277
-7.1835909 87.670776 10.50983
-7.1835909 87.970779 10.501383
-7.1835909 88.270775 10.492936
-7.1835909 88.570778 10.484489
-7.1835909 90.420776 10.432401
-7.1835909 93.970779 10.332446
-7.1835909 96.320778 10.266279
-7.1835909 97.520775 10.232492
-7.1835909 98.020775 10.218414
-7.1835909 98.470779 10.205744
-7.0835905 96.770775 10.253634
-6.9835906 97.070778 10.245213
-6.9835906 97.770775 10.225503
-6.9835906 98.720779 10.198755
-6.9335909 98.220779 10.212846
-6.8835907 83.420776 10.629569
-6.8835907 83.720779 10.621122
-6.8835907 84.020775 10.612676
-6.8835907 84.320778 10.604228
-6.8835907 84.620773 10.595781
-6.8835907 84.920776 10.587335
-6.8835907 85.220779 10.578888
-6.8835907 85.520775 10.570441
-6.8835907 85.820778 10.561995
-6.8835907 86.120773 10.553547
-6.8835907 86.420776 10.5451
-6.8835907 86.720779 10.536654
-6.8835907 87.020775 10.528207
-6.8835907 87.320778 10.51976
-6.8835907 87.620773 10.511313
-6.8835907 87.920776 10.502867
-6.8835907 88.220779 10.494419
-6.8835907 88.520775 10.485972
-6.8835907 96.120773 10.271986
-6.8835907 96.420776 10.263539
-6.8835907 97.370773 10.236791
-6.8335905 91.120773 10.412779
-6.7835908 95.670776 10.284681
-6.7835908 96.720779 10.255117
-6.7835908 98.970779 10.191766
-6.7335906 97.970779 10.219934
-6.7335906 98.470779 10.205856
-6.6835909 95.320778 10.294561
-6.6835909 97.020775 10.246696
-6.6835909 97.620773 10.229802
-6.5835905 83.420776 10.629644
-6.5835905 83.720779 10.621198
-6.5835905 84.020775 10.612751
-6.5835905 84.320778 10.604303
-6.5835905 84.620773 10.595857
-6.5835905 84.920776 10.58741
-6.5835905 85.220779 10.578963
-6.5835905 85.520775 10.570517
-6.5835905 85.820778 10.56207
-6.5835905 86.120773 10.553622
-6.5835905 86.420776 10.545176
-6.5835905 86.720779 10.536729
-6.5835905 87.020775 10.528282
-6.5835905 87.320778 10.519835
-6.5835905 87.620773 10.511389
-6.5835905 87.920776 10.502941
-6.5835905 88.520775 10.486048
-6.5835905 95.920776 10.277693
-6.5835905 96.220779 10.269245
-6.5835905 97.320778 10.238274
-6.5335908 96.520775 10.260811
-6.5335908 98.220779 10.212946
-6.5335908 98.720779 10.198868
-6.4835906 95.570778 10.287572
-6.4335909 96.820778 10.25239
-6.4335909 97.820778 10.224234
-6.3835907 95.220779 10.297452
-6.3335905 97.120773 10.243968
-6.3335905 97.520775 10.232705
-6.3335905 98.470779 10.205957
-6.3335905 98.970779 10.191879
-6.2835908 83.470779 10.628312
-6.2835908 83.770775 10.619864
-6.2835908 84.070778 10.611418
-6.2835908 84.370773 10.602971
-6.2835908 84.670776 10.594524
-6.2835908 84.970779 10.586078
-6.2835908 85.270775 10.577631
-6.2835908 85.570778 10.569183
-6.2835908 85.870773 10.560737
-6.2835908 86.170776 10.55229
-6.2835908 86.470779 10.543843
-6.2835908 86.770775 10.535397
-6.2835908 94.870773 10.307332
-6.2835908 95.820778 10.280583
-6.2835908 96.120773 10.272137
-6.2335906 96.420776 10.263702
-6.2335906 98.070778 10.217244
-6.1835909 95.470779 10.290463
-6.1335907 96.720779 10.25528
-6.1335907 97.770775 10.225717
-6.1335907 98.720779 10.198968
-6.0835905 95.120773 10.300343
-6.0835905 97.320778 10.2384
-6.0335908 94.120773 10.328511
-6.0335908 97.020775 10.246859
-6.0335908 98.320778 10.210256
-5.9835906 83.420776 10.629795
-5.9835906 83.720779 10.621348
-5.9835906 84.020775 10.612901
-5.9835906 84.320778 10.604454
-5.9835906 84.620773 10.596007
-5.9835906 84.920776 10.587561
-5.9835906 85.220779 10.579114
-5.9835906 85.520775 10.570667
-5.9835906 85.820778 10.56222
-5.9835906 86.120773 10.553773
-5.9835906 86.420776 10.545326
-5.9835906 94.770775 10.310223
-5.9835906 95.720779 10.283474
-5.9835906 96.020775 10.275027
-5.9335909 96.320778 10.266593
-5.9335909 98.020775 10.218728
-5.9335909 98.970779 10.191979
-5.8835907 94.420776 10.320103
-5.8835907 95.370773 10.293354
-5.8835907 97.570778 10.23141
-5.8335905 96.620773 10.258171
-5.8335905 98.570778 10.203267
-5.7835908 95.020775 10.303234
-5.7835908 97.220779 10.24129
-5.7335906 94.120773 10.328587
-5.7335906 96.920776 10.249749
-5.7335906 98.270775 10.211739
-5.6835909 83.470779 10.628462
-5.6835909 83.770775 10.620015
-5.6835909 84.070778 10.611568
-5.6835909 84.370773 10.603122
-5.6835909 84.670776 10.594675
-5.6835909 84.970779 10.586228
-5.6835909 85.270775 10.577782
-5.6835909 85.570778 10.569334
-5.6835909 85.870773 10.560887
-5.6835909 86.170776 10.552441
-5.6835909 94.670776 10.313113
-5.6835909 95.620773 10.286366
-5.6835909 95.920776 10.277918
-5.6835909 97.820778 10.224422
-5.6335907 96.220779 10.269484
-5.6335907 98.820778 10.196278
-5.5835905 93.620773 10.342703
-5.5835905 95.270775 10.296245
-5.5835905 97.470779 10.234302
-5.5335908 88.420776 10.489127
-5.5335908 94.370773 10.321598
-5.5335908 96.520775 10.261063
-5.5335908 98.520775 10.20475
-5.4835906 93.320778 10.351174
-5.4835906 93.920776 10.334281
-5.4835906 94.920776 10.306125
-5.4835906 97.120773 10.244181
-5.4835906 98.070778 10.217433
-5.4335909 96.820778 10.252641
-5.3835907 83.420776 10.629946
-5.3835907 83.720779 10.621498
-5.3835907 84.020775 10.613051
-5.3835907 84.320778 10.604605
-5.3835907 84.620773 10.596158
-5.3835907 84.920776 10.587711
-5.3835907 85.220779 10.579265
-5.3835907 85.520775 10.570818
-5.3835907 85.820778 10.56237
-5.3835907 95.520775 10.289256
-5.3835907 95.820778 10.280809
-5.3835907 97.720779 10.227312
-5.3335905 94.620773 10.31461
-5.3335905 96.120773 10.272375
-5.3335905 98.770775 10.197762
-5.2835908 93.570778 10.344186
-5.2835908 94.170776 10.327291
-5.2835908 95.170776 10.299136
-5.2835908 97.370773 10.237192
-5.2835908 98.320778 10.210443
-5.2335906 96.420776 10.263953
-5.1835909 93.220779 10.354065
-5.1835909 93.870773 10.335764
-5.1835909 97.020775 10.247072
-5.1835909 97.970779 10.220324
-5.1335907 92.770775 10.366748
-5.1335907 94.870773 10.30762
-5.1335907 96.720779 10.255531
-5.0835905 83.420776 10.630021
-5.0835905 83.720779 10.621573
-5.0835905 84.020775 10.613127
-5.0835905 84.320778 10.60468
-5.0835905 84.620773 10.596233
-5.0835905 84.920776 10.587787
-5.0835905 94.420776 10.320303
-5.0835905 95.420776 10.292147
-5.0835905 95.720779 10.2837
-5.0835905 97.620773 10.230204
-5.0835905 98.570778 10.203455
-5.0835905 98.970779 10.192193
-5.0335908 96.020775 10.275266
-4.9835906 93.470779 10.347076
-4.9835906 94.120773 10.328775
-4.9835906 97.270775 10.240083
-4.9835906 98.220779 10.213335
-4.9335909 93.020775 10.359759
-4.9335909 95.120773 10.300632
-4.9335909 96.320778 10.266844
-4.8835907 92.520775 10.37385
-4.8835907 93.770775 10.338655
-4.8835907 94.670776 10.313314
-4.8835907 96.920776 10.249963
-4.8835907 97.870773 10.223214
-4.8335905 96.620773 10.258422
-4.8335905 98.770775 10.197886
-4.7835908 83.470779 10.628688
-4.7835908 83.770775 10.620241
-4.7835908 84.070778 10.611794
-4.7835908 94.370773 10.321786
-4.7835908 95.470779 10.290814
-4.7835908 95.770775 10.282368
-4.7835908 97.520775 10.233094
-4.7835908 98.470779 10.206346
-4.7335906 93.270775 10.352771
-4.7335906 96.070778 10.273933
-4.6835909 92.770775 10.366861
-4.6835909 94.020775 10.331666
-4.6835909 94.920776 10.306325
-4.6835909 97.170776 10.242974
-4.6835909 98.120773 10.216226
-4.6335907 91.770775 10.39503
-4.6335907 93.570778 10.344349
-4.6335907 96.370773 10.265512
-4.5835905 92.320778 10.379557
-4.5835905 94.620773 10.314797
-4.5835905 95.220779 10.297904
-4.5835905 96.820778 10.252853
-4.5835905 97.770775 10.226106
-4.5835905 98.970779 10.192318
-4.5335908 84.270775 10.606226
-4.5335908 98.670776 10.200777
-4.4835906 83.420776 10.630171
-4.4835906 83.720779 10.621724
-4.4835906 93.020775 10.359872
-4.4835906 94.270775 10.324677
-4.4835906 95.520775 10.289482
-4.4835906 95.820778 10.281035
-4.4835906 97.420776 10.235985
-4.4835906 98.370773 10.209237
-4.4335909 92.020775 10.388041
-4.4335909 93.320778 10.351438
-4.4335909 93.820778 10.337359
-4.4335909 96.120773 10.272601
-4.3835907 87.220779 10.523203
-4.3835907 92.570778 10.372567
-4.3835907 94.870773 10.307809
-4.3835907 96.570778 10.259943
-4.3835907 97.070778 10.245865
-4.3835907 98.020775 10.219116
-4.3335905 91.670776 10.397921
-4.2835908 94.520775 10.317688
-4.2835908 95.170776 10.299387
-4.2835908 97.670776 10.228996
-4.2835908 98.870773 10.195209
-4.2335906 92.270775 10.381052
-4.2335906 93.570778 10.344449
-4.2335906 94.070778 10.330371
-4.2335906 98.570778 10.203669
-4.1835909 92.820778 10.365579
-4.1835909 93.120773 10.357132
-4.1835909 95.470779 10.290965
-4.1835909 95.770775 10.282518
-4.1835909 96.320778 10.267033
-4.1835909 96.820778 10.252954
-4.1835909 97.320778 10.238876
-4.1835909 98.270775 10.212128
-4.1335907 83.420776 10.63026
-4.1335907 91.320778 10.407825
-4.1335907 91.920776 10.390932
-4.0835905 94.770775 10.310699
-4.0835905 97.920776 10.222008
-4.0335908 91.620773 10.399404
-4.0335908 92.520775 10.374063
-4.0335908 93.820778 10.337461
-4.0335908 94.320778 10.323382
-3.9835906 88.420776 10.489516
-3.9835906 90.370773 10.434611
-3.9835906 90.720779 10.424757
-3.9835906 93.370773 10.350143
-3.9835906 95.070778 10.302278
-3.9835906 96.020775 10.275529
-3.9835906 96.570778 10.260043
-3.9835906 97.070778 10.245965
-3.9835906 97.570778 10.231887
-3.9835906 98.770775 10.1981
-3.9335907 86.070778 10.555696
-3.9335907 86.770775 10.535986
-3.9335907 88.770775 10.479674
-3.9335907 89.070778 10.471227
-3.9335907 89.470779 10.459965
-3.9335907 92.170776 10.383943
-3.9335907 98.470779 10.206559
-3.8835907 86.370773 10.547261
-3.8835907 87.070778 10.527552
-3.8835907 87.620773 10.512066
-3.8835907 88.020775 10.500804
-3.8835907 91.020775 10.416335
-3.8835907 92.820778 10.365654
-3.8835907 95.370773 10.293856
-3.8835907 95.670776 10.285409
-3.8835907 98.170776 10.215018
-3.8335907 91.370773 10.406493
-3.8335907 91.870773 10.392415
-3.8335907 94.070778 10.330471
-3.8335907 94.570778 10.316393
-3.7835908 93.120773 10.357232
-3.7835908 93.620773 10.343154
-3.7835908 96.270775 10.26854
-3.7835908 96.820778 10.253055
-3.7835908 97.320778 10.238976
-3.7835908 97.820778 10.224898
-3.7335906 90.170776 10.440306
-3.7335906 92.420776 10.376954
-3.7335906 94.870773 10.307972
-3.7335906 98.970779 10.192532
-3.6835907 88.270775 10.493814
-3.6835907 88.570778 10.485368
-3.6835907 89.270775 10.465658
-3.6835907 90.470779 10.431871
-3.6835907 90.770775 10.423425
-3.6835907 95.920776 10.27842
-3.6835907 98.670776 10.200991
-3.6335907 85.970779 10.558586
-3.6335907 86.570778 10.541693
-3.6335907 86.870773 10.533246
-3.6335907 87.820778 10.506497
-3.6335907 88.870773 10.476933
-3.6335907 89.570778 10.457224
-3.6335907 91.620773 10.399504
-3.6335907 92.120773 10.385427
-3.6335907 94.320778 10.323483
-3.6335907 95.170776 10.29955
-3.6335907 98.370773 10.20945
-3.5835907 84.020775 10.613503
-3.5835907 85.170776 10.581124
-3.5835907 86.270775 10.550152
-3.5835907 91.070778 10.415003
-3.5835907 92.720779 10.368545
-3.5835907 93.370773 10.350244
-3.5835907 93.870773 10.336165
-3.5835907 95.470779 10.291116
-3.5835907 96.520775 10.261552
-3.5835907 97.070778 10.246066
-3.5835907 97.570778 10.231988
-3.5835907 98.070778 10.21791
-3.5335908 85.670776 10.567059
-3.5335908 94.620773 10.315061
-3.4835906 83.570778 10.626199
-3.4835906 87.170776 10.524837
-3.4835906 87.520775 10.514982
-3.4835906 93.020775 10.360124
-3.4835906 96.170776 10.271431
-3.4335907 88.070778 10.499509
-3.4335907 89.820778 10.450235
-3.4335907 90.120773 10.441789
-3.4335907 91.370773 10.406593
-3.4335907 91.870773 10.392515
-3.4335907 92.370773 10.378437
-3.4335907 94.920776 10.306639
-3.4335907 98.870773 10.195422
4.5434217 99.753441 10.183352
4.5434217 100.05344 10.17615
4.5434217 100.35344 10.168948
4.5434217 100.65344 10.161746
4.5434217 100.95344 10.154544
4.5434217 101.25344 10.147342
4.5434217 101.55344 10.140139
4.5434217 101.85344 10.132936
4.5434217 102.15344 10.125734
4.5434217 103.75344 10.087323
4.5434217 104.05344 10.08012
4.8434219 99.753441 10.184054
4.8434219 100.05344 10.176852
4.8434219 100.35344 10.16965
4.8434219 100.65344 10.162448
4.8434219 100.95344 10.155246
4.8434219 101.25344 10.148044
4.8434219 101.55344 10.140841
4.8434219 104.05344 10.080823
5.1434216 99.753441 10.184757
5.1434216 100.05344 10.177555
5.1434216 100.35344 10.170353
5.1434216 100.65344 10.163151
5.1434216 100.95344 10.155949
5.1434216 101.25344 10.148746
5.1434216 101.55344 10.141543
5.1434216 103.50344 10.094729
5.1434216 103.95344 10.083926
5.3934216 104.15344 10.07971
5.4434218 99.753441 10.185459
5.4434218 100.05344 10.178257
5.4434218 100.35344 10.171055
5.4434218 100.65344 10.163853
5.4434218 100.95344 10.156651
5.5934219 101.70344 10.138996
5.6434216 102.00344 10.131911
5.6434216 102.30344 10.124709
5.6934218 101.15344 10.152434
5.6934218 102.60344 10.117623
5.7434216 99.753441 10.186162
5.7434216 100.05344 10.17896
5.7434216 100.85344 10.159754
5.7934217 101.45344 10.145466
5.8934216 101.75344 10.138498
5.9434218 102.05344 10.131413
5.9434218 102.35344 10.12421
5.9934216 100.25344 10.174744
5.9934216 101.05344 10.155538
5.9934216 102.65344 10.117126
6.0434217 99.753441 10.186864
6.0434217 100.75344 10.162857
6.0934219 101.35344 10.148569
6.1934218 101.65344 10.141602
6.2434216 100.00344 10.181331
6.2434216 100.45344 10.170527
6.2434216 101.95344 10.134516
6.2434216 102.25344 10.127314
6.2934217 100.95344 10.158641
6.2934217 102.55344 10.120229
6.3934216 101.25344 10.151672
6.4434218 99.753441 10.1878
6.4934216 100.20344 10.177114
6.4934216 100.65344 10.166311
6.4934216 101.55344 10.144705
6.5434217 101.85344 10.137619
6.5934219 100.95344 10.159343
6.6934218 99.953438 10.183584
6.6934218 101.25344 10.152375
6.7434216 100.40344 10.172898
6.7934217 100.70344 10.165813
6.8934216 101.00344 10.158845
6.9434218 100.15344 10.179368
6.9434218 104.15344 10.083339
6.9934216 101.30344 10.151876
6.9934216 102.50344 10.123068
7.0434217 100.45344 10.1724
7.0934219 100.75344 10.165315
7.0934219 101.85344 10.138906
7.1434216 102.80344 10.116217
7.1934218 99.953438 10.184755
7.1934218 101.05344 10.158347
7.1934218 103.15344 10.107931
7.1934218 103.60344 10.097128
7.2434216 102.15344 10.132056
7.2434216 103.90344 10.090043
7.2934217 100.25344 10.177787
7.3434219 100.55344 10.170702
7.3934216 101.80344 10.14081
7.4434218 99.753441 10.190142
7.4434218 100.85344 10.163733
7.4434218 101.25344 10.154131
7.4434218 103.35344 10.103715
7.4434218 104.15344 10.084509
7.4934216 103.65344 10.09663
7.5434217 100.05344 10.183174
7.5934219 101.55344 10.14728
7.6934218 101.05344 10.159517
7.6934218 102.50344 10.124707
7.6934218 103.90344 10.091096
7.7434216 99.753441 10.190845
7.7434216 102.80344 10.117621
7.7434216 103.10344 10.110419
7.7434216 103.40344 10.103217
7.8434219 101.35344 10.152666
7.8934216 104.15344 10.085563
7.9434218 103.65344 10.097684
7.9934216 99.953438 10.186628
7.9934216 102.45344 10.12661
8.0434217 102.75344 10.119524
8.0434217 103.05344 10.112322
8.0434217 103.35344 10.10512
8.0934219 100.35344 10.177259
8.0934219 101.70344 10.144849
8.0934219 102.00344 10.137647
8.1434221 103.90344 10.09215
8.2434216 99.753441 10.192015
8.2434216 103.60344 10.099586
8.2934217 100.05344 10.18493
8.2934217 102.25344 10.132113
8.2934217 102.55344 10.124911
8.3434219 102.85344 10.117826
8.3434219 103.15344 10.110623
8.3434219 104.15344 10.086617
8.3934221 100.35344 10.177961
8.3934221 101.65344 10.146752
8.3934221 101.95344 10.139549
8.4434214 103.85344 10.094052
8.4934216 101.15344 10.15899
8.5434217 99.753441 10.192718
8.5434217 103.40344 10.10509
5.3934216 102.98273 10.105636
5.3934216 103.28273 10.099176
5.3934216 103.58273 10.092717
5.3934216 104.48273 10.073339
5.3934216 104.78273 10.06688
5.3934216 105.08273 10.060421
5.3934216 105.38273 10.053962
5.3934216 105.68272 10.047503
5.3934216 105.98273 10.041043
5.3934216 106.28273 10.034584
5.3934216 106.58273 10.028125
5.3934216 106.88273 10.021666
5.3934216 107.18272 10.015206
5.3934216 107.48273 10.008747
5.3934216 107.78273 10.002288
5.3934216 108.08273 9.9958286
5.3934216 108.38273 9.9893694
5.6934218 102.98273 10.106136
5.6934218 104.48273 10.07384
5.6934218 104.78273 10.067381
5.6934218 105.08273 10.060922
5.6934218 105.38273 10.054462
5.6934218 105.68272 10.048003
5.6934218 105.98273 10.041544
5.6934218 106.28273 10.035085
5.6934218 106.58273 10.028625
5.6934218 106.88273 10.022166
5.6934218 107.18272 10.015707
5.6934218 107.48273 10.009248
5.6934218 107.78273 10.002789
5.6934218 108.08273 9.9963293
5.6934218 108.38273 9.9898701
5.9934216 104.83273 10.066805
5.9934216 105.13273 10.060346
5.9934216 105.43272 10.053886
5.9934216 105.73273 10.047427
5.9934216 106.03273 10.040968
5.9934216 106.33273 10.034509
5.9934216 106.63273 10.028049
5.9934216 106.93272 10.02159
5.9934216 107.23273 10.015131
5.9934216 107.53273 10.008672
5.9934216 107.83273 10.002213
5.9934216 108.13273 9.9957533
5.9934216 108.43272 9.9892941
6.2934217 104.78273 10.068382
6.2934217 105.08273 10.061923
6.2934217 105.38273 10.055464
6.2934217 105.68272 10.049005
6.2934217 105.98273 10.042545
6.2934217 106.28273 10.036086
6.2934217 106.58273 10.029627
6.2934217 106.88273 10.023168
6.2934217 107.18272 10.016708
6.2934217 107.48273 10.010249
6.2934217 107.78273 10.00379
6.2934217 108.08273 9.9973307
6.2934217 108.38273 9.9908714
6.5934215 104.98273 10.064577
6.5934215 105.28273 10.058118
6.5934215 105.58273 10.051659
6.5934215 105.88273 10.045199
6.5934215 106.18272 10.03874
6.5934215 106.48273 10.032281
6.5934215 106.78273 10.025822
6.5934215 107.08273 10.019362
6.5934215 107.38273 10.012902
6.5934215 107.68272 10.006443
6.5934215 107.98273 9.9999838
6.5934215 108.28273 9.9935246
6.7934217 108.53273 9.9884758
6.8434215 102.98273 10.108056
6.8934216 105.28273 10.058619
6.8934216 105.58273 10.052159
6.8934216 105.88273 10.0457
6.8934216 106.18272 10.039241
6.8934216 106.48273 10.032782
6.8934216 106.78273 10.026322
6.8934216 107.08273 10.019863
6.8934216 107.38273 10.013403
6.8934216 107.68272 10.006944
6.8934216 107.98273 10.000484
6.9934216 108.28273 9.9941921
7.1434216 102.98273 10.108557
7.1934218 105.28273 10.059119
7.1934218 105.58273 10.05266
7.1934218 105.88273 10.046201
7.1934218 106.18272 10.039742
7.1934218 106.48273 10.033282
7.1934218 106.78273 10.026823
7.1934218 107.08273 10.020364
7.1934218 107.38273 10.013904
7.1934218 107.68272 10.007444
7.1934218 107.98273 10.000985
7.1934218 108.53273 9.9891434
7.2934217 103.28273 10.102347
7.3934216 108.23273 9.9959364
7.4434218 102.98273 10.109057
7.4934216 105.33273 10.058543
7.4934216 105.63273 10.052084
7.4934216 105.93272 10.045625
7.4934216 106.23273 10.039165
7.4934216 106.53273 10.032706
7.4934216 106.83273 10.026247
7.4934216 107.13273 10.019788
7.4934216 107.43272 10.013329
7.4934216 107.73273 10.006869
7.4934216 108.53273 9.9896441
7.5934215 103.28273 10.102848
7.6434216 108.03273 10.00066
7.7434216 102.98273 10.109558
7.7434216 108.33273 9.9943676
7.7934217 105.78273 10.049355
7.7934217 106.08273 10.042895
7.7934217 106.38273 10.036436
7.7934217 106.68272 10.029977
7.7934217 106.98273 10.023518
7.7934217 107.28273 10.017058
7.7934217 107.58273 10.010599
7.8434215 103.48273 10.09896
7.9434218 107.88273 10.004391
7.9934216 103.18272 10.105669
7.9934216 104.78273 10.071219
7.9934216 108.53273 9.9904785
8.0434217 108.18272 9.9980984
8.0934219 103.68272 10.095071
8.0934219 105.73273 10.050932
8.0934219 106.03273 10.044473
8.0934219 106.33273 10.038013
8.0934219 106.63273 10.031554
8.0934219 106.93272 10.025095
8.0934219 107.23273 10.018636
8.0934219 107.53273 10.012177
8.2434216 102.98273 10.110393
8.2434216 103.38273 10.10178
8.2434216 107.83273 10.005967
8.2934217 108.38273 9.9942093
8.3934212 103.73273 10.094495
8.3934212 105.78273 10.050356
8.3934212 106.08273 10.043897
8.3934212 106.38273 10.037437
8.3934212 106.68272 10.030978
8.3934212 106.98273 10.024519
8.3934212 107.28273 10.01806
8.4434214 107.58273 10.011684
8.4434214 108.08273 10.000918
8.4934216 103.18272 10.106503
8.5934219 103.48273 10.100211
8.5934219 103.98273 10.089446
8.5934219 108.38273 9.99471
8.6434212 104.28273 10.08307
8.6434212 107.83273 10.006635
8.6934214 106.18272 10.042245
8.6934214 106.48273 10.035786
8.6934214 106.78273 10.029326
8.6934214 107.08273 10.022867
8.6934214 107.38273 10.016407
8.7434216 102.98273 10.111227
8.7434216 104.83273 10.071395
8.7934217 103.73273 10.095162
8.7934217 108.13273 10.000426
8.8434219 103.28273 10.104935
8.8434219 104.53273 10.078021
8.8934221 104.03273 10.08887
8.8934221 107.63273 10.011358
8.8934221 108.43272 9.9941339
8.9934216 106.13273 10.043821
8.9934216 106.43272 10.037362
8.9934216 106.73273 10.030903
8.9934216 107.03273 10.024444
8.9934216 107.33273 10.017984
9.0434217 102.98273 10.111728
9.0434217 103.53273 10.099886
9.0434217 107.93272 10.00515
9.0934219 104.28273 10.083821
9.0934219 104.73273 10.074132
9.1434221 103.83273 10.093594
9.1434221 108.23273 9.9988575
9.1934214 107.58273 10.012936
9.1934214 108.53273 9.9924812
9.2434216 103.23273 10.106679
9.2934217 106.48273 10.036787
9.2934217 106.78273 10.030328
9.2934217 107.08273 10.023869
9.3434219 103.53273 10.100387
9.3434219 104.08273 10.088544
9.3434219 104.48273 10.079932
9.3434219 104.98273 10.069166
